# .PCD v0.7 - Point Cloud Data file format
VERSION 0.7
FIELDS x y z label
SIZE 4 4 4 4
TYPE F F F U
COUNT 1 1 1 1
WIDTH 1648
HEIGHT 1
VIEWPOINT 0 0 0 1 0 0 0
POINTS 1648
DATA ascii
182.66701 63.502399 251.65199 5
168.334 49.4118 258.84399 4
180.457 62.011101 251.70799 5
176.84399 57.740799 253.506 5
178.662 62.579102 253.017 5
175.937 54.2822 255.983 4
177.349 48.296902 262.96201 5
177.14 53.6758 254.09399 5
174.53799 59.676601 258.83301 4
177.32401 59.773201 253.131 5
176.33701 51.033199 258.44901 5
175.049 57.4519 256.92801 4
172.69901 51.020302 261.35101 4
175.077 56.093102 257.23499 4
176.44701 58.620499 253.95 5
169.847 58.827999 257.37601 4
181.11099 58.761902 250.709 5
182.403 64.360703 252.24001 5
179.06599 61.634899 252.334 5
177.89 56.883202 252.51199 5
166.09801 55.0466 257.69501 4
167.61 62.4034 258.67099 4
172.77699 63.098301 260.32001 4
175.73 59.465199 255.285 4
174.875 58.187801 257.64001 4
180 65.447403 254.226 5
166.69501 53.046001 258.01999 4
177.72099 52.432201 254.362 5
175.948 52.012501 258.35101 4
170.084 48.047401 261.91199 4
167.95599 51.902401 258.05701 4
169.12199 55.976601 257.13901 4
178.673 60.049099 252.12199 5
184.668 63.5154 251.181 5
169.586 48.1646 260.95099 4
170.088 50.267101 259.297 4
168.071 54.151001 257.33801 4
176.476 53.0219 255.81 5
180.26199 56.565399 251.011 5
169.774 53.5508 257.74899 4
168.07201 55.5075 257.19299 4
177.688 54.098499 253.411 5
169.69299 57.887001 257.224 4
169.17999 55.024101 257.16599 4
175.42 51.937801 260.211 4
179.03799 55.442799 251.99699 5
172.51801 52.077099 260.55801 4
176.87399 50.291599 258.18399 5
176.407 47.981899 264.27499 5
175.189 50.681599 261.58701 4
174.89999 49.574799 263.608 4
171.92599 63.405102 259.59698 4
175.418 55.200401 256.85501 4
175.89301 56.1422 254.96899 4
182.086 58.941601 250.39799 5
177.968 47.224998 263.58701 5
174.588 55.9557 258.69101 4
176.11301 49.801498 262.39499 4
171.17799 52.426399 258.888 4
169.78999 51.893501 258.30099 4
180.052 55.642399 251.563 5
176.26801 49.993099 261.483 4
176.522 49.990898 260.10101 5
180.461 60.525398 251.187 5
171.94901 49.284 261.50299 4
167.44099 56.253201 257.46701 4
167.33299 53.724998 257.633 4
179.51401 57.102901 251.38699 5
175.502 48.7188 263.84601 4
177.487 49.956902 257.56601 5
174.532 47.753601 265.74899 4
172.026 48.162201 263.09799 4
181.653 57.722801 250.556 5
173.25 47.284 265.88599 4
171.431 57.179199 258.01401 4
179.116 53.371899 252.638 5
176.72 49.157501 262.33899 5
175.64101 56.9389 255.377 4
176.239 54.5494 255.02299 4
176.244 51.862701 257.43201 4
169.923 54.447102 257.59299 4
176.605 55.590401 253.881 5
177.623 48.859501 261.00601 5
175.509 49.355 262.914 4
167.476 50.209801 258.83899 4
182.138 60.8335 250.72501 5
182.886 62.145199 251.02699 5
173.795 49.7906 262.83099 4
175.242 54.613899 257.75201 4
174.411 54.448799 259.72601 4
173.76401 52.860298 260.841 4
175.257 56.583599 256.36301 4
167.077 51.167999 258.444 4
168.314 59.3284 257.36301 4
170.054 56.0583 257.28101 4
171.81 49.973499 260.909 4
183.897 60.588902 250.367 5
178.269 52.592899 253.72701 5
173.267 48.222401 264.35599 4
183.81799 62.3274 250.814 5
173.53799 56.3694 259.54099 4
183.116 61.181702 250.63699 5
173.207 57.5107 259.367 4
171.286 55.750198 257.97 4
170.832 57.605 257.56 4
177.12801 52.992199 254.722 5
175.41901 47.665298 265.72601 4
171.069 48.131699 262.85699 4
165.72 58.2752 257.479 4
173.62801 55.555801 259.68399 4
176.7 51.001701 257.46799 5
177.26401 49.777901 258.77701 5
168.455 48.3736 259.70499 4
177.60699 51.058899 255.30901 5
176.09599 50.673199 259.92599 4
172.62199 58.530102 259.186 4
175.09399 48.232601 265.07199 4
173.528 50.952202 262.005 4
169.64 52.624699 257.95901 4
175.11099 47.0592 266.45999 4
168.35699 47.291302 261.24701 4
167.99001 57.249599 257.293 4
172.48801 50.109699 261.58801 4
171.88 53.1371 259.28699 4
177.646 50.347599 256.388 5
176.88499 47.304901 264.625 5
176.45599 48.303501 263.54001 5
167.05901 54.4711 257.73499 4
170.696 53.280102 258.20099 4
172.62801 53.676399 259.86401 4
174.896 57.049099 257.59698 4
177.474 55.827801 253.21201 5
182.99899 59.581001 250.31799 5
172.87199 48.747398 263.44601 4
170.381 49.547298 260.16101 4
181.63499 61.459099 251.09801 5
174.097 48.824799 264.33701 4
175.812 55.470901 255.358 4
175.32001 53.105099 258.54001 4
174.592 56.729401 258.30099 4
176.729 52.194099 255.98199 5
175.67101 52.134201 259.064 4
170.797 48.888401 261.47198 4
174.194 57.755402 259.05899 4
172.46201 47.514599 264.474 4
177.14 51.6217 255.545 5
171.177 59.076599 258.03299 4
176.868 54.391701 254.14999 5
177.681 53.069801 253.841 5
178.34599 56.339298 252.233 5
182.92 62.868698 251.261 5
177.586 51.790298 254.83701 5
177.77901 54.8456 253.043 5
167.918 47.868198 261.043 4
168.97301 50.048199 258.76401 4
174.453 50.145901 262.80701 4
175.591 53.8274 257.673 4
172.57001 49.466499 262.263 4
183.83501 61.3409 250.543 5
175.067 54.532001 258.57901 4
173.129 52.5331 260.64999 4
182.425 60.013302 250.489 5
168.834 47.727699 260.89001 4
167.741 48.870098 259.37399 4
178.05099 48.91 259.39999 5
168.96899 48.930801 259.47198 4
178.12801 51.751701 254.21899 5
178.644 53.883202 252.85899 5
177.80099 47.7393 262.92599 5
184.084 57.235199 250.095 5
178.67599 46.834 263.285 5
188.30701 46.901402 253.66 5
178.828 50.6632 254.599 5
182.60699 46.305801 257.517 5
184.724 51.470901 251.80299 5
185.33701 61.950199 250.48599 5
180.686 53.896198 251.58501 5
178.877 48.368401 259.26999 5
184.59 47.837601 254.47 5
186.57201 54.537899 250.05901 5
181.841 49.763901 253.267 5
187.50301 49.874599 252.244 5
180.61099 48.3009 256.41 5
183.884 54.060799 250.64101 5
185.916 59.156502 249.799 5
180.198 46.429901 260.51501 5
182.099 51.930401 251.838 5
187.12801 52.1026 251.58299 5
181.942 56.449501 250.425 5
178.067 49.762798 256.54901 5
183.77699 59.610199 250.187 5
186.53999 48.215 253.397 5
186.21001 56.8979 249.675 5
184.922 46.217999 255.87601 5
180.05901 52.214298 252.76601 5
178.23199 48.163101 261.26001 5
184.286 49.602299 253.383 5
182.752 48.469002 255.186 5
180.487 49.7775 254.91499 5
180.338 47.642399 258.31799 5
185.82899 53.025902 250.864 5
186.302 46.717098 255.017 5
184.80499 55.4002 250.19 5
183.37399 50.7113 252.29601 5
182.50101 57.9417 250.356 5
182.142 53.4245 251.15199 5
183.058 47.112 255.929 5
185.638 50.473099 252.61 5
181.282 46.435902 258.45499 5
183.5 52.472698 251.556 5
180.853 50.792599 252.998 5
179.575 48.5592 257.491 5
179.42999 46.5396 261.741 5
178.09599 49.207401 258.39301 5
183.231 55.2831 250.37199 5
183.147 49.433498 254.177 5
181.478 48.883999 255.42799 5
181.927 55.0616 250.651 5
184.87 60.324799 250.12601 5
181.58099 47.537102 256.827 5
179.72 51.173302 253.44501 5
178.953 52.268398 253.373 5
185.97701 51.395699 251.69 5
179.164 47.224701 260.72 5
184.68201 58.310001 249.955 5
178.842 49.980701 255.582 5
182.14 50.914902 253.22701 5
179.823 49.2616 255.756 5
187.532 51.043301 252.071 5
181.798 49.831501 254.438 5
187.19901 46.762001 254.271 5
178.541 47.2201 262.19601 5
187.802 48.836498 252.655 5
183.51401 58.415001 250.112 5
185.112 46.8811 254.791 5
179.474 47.455101 259.52899 5
186.60201 49.518501 252.797 5
186.056 47.302898 254.11 5
180.455 46.5569 259.45099 5
179.423 53.098701 252.636 5
182.959 56.738499 250.241 5
182.119 47.669201 255.914 5
180.595 50.829201 254.006 5
185.02299 48.8932 253.56599 5
182.30499 50.681 252.23399 5
180.95799 51.979099 252.319 5
186.644 50.594601 252.435 5
181.286 55.741001 251.071 5
185.562 54.5928 250.19 5
187.62601 47.5965 253.395 5
184.817 56.3055 249.776 5
183.841 47.125301 255.325 5
181.50101 54.322701 251.256 5
185.839 60.4212 250.05901 5
182.972 51.6045 252.118 5
185.295 57.595798 249.722 5
179.65199 50.433701 254.161 5
183.85201 53.165798 250.985 5
182.67599 54.491699 250.83501 5
180.756 47.618198 257.29001 5
180.224 52.8829 252.117 5
184.806 53.937302 250.507 5
178.246 48.551102 260.40701 5
178.871 48.6992 258.091 5
185.40601 52.280998 251.22701 5
183.22701 46.520401 256.85999 5
182.47 47.1367 256.64099 5
184.744 50.2374 252.90601 5
181.45799 47.035599 257.58401 5
178.16 49.3288 257.487 5
178.992 51.369999 253.938 5
181.81599 51.449799 252.591 5
179.702 48.821201 256.51401 5
186.255 55.345299 249.905 5
178.754 47.941002 260.02899 5
185.703 49.685299 252.98801 5
182.623 49.904701 252.899 5
184.235 50.862099 252.177 5
180.47 49.775101 254.05701 5
186.87199 47.2374 253.64301 5
186.034 53.891399 250.29601 5
185.80701 48.777599 253.256 5
181.48 48.3409 256.073 5
182.564 52.725101 251.355 5
178.071 50.299 255.646 5
180.259 51.402401 252.783 5
182.76401 58.753899 250.25301 5
183.366 51.698898 251.286 5
183.28799 57.4841 250.10001 5
184.444 54.667 250.231 5
187.274 48.158298 252.924 5
180.812 49.372101 255.537 5
185.776 48.0257 253.577 5
179.702 49.954601 254.95599 5
180.116 53.744999 252.134 5
183.791 46.731998 256.02499 5
182.507 49.800098 253.85699 5
185.29601 47.565498 254.205 5
180.435 54.629902 251.414 5
183.744 55.887001 250.32899 5
179.771 46.933701 260.078 5
185.459 46.602501 255.446 5
186.534 52.678001 250.864 5
184.24699 58.9631 249.995 5
179.595 48.1684 258.172 5
186.16901 52.161598 251.36 5
183.245 50.379299 252.992 5
184.60699 47.1255 255.453 5
178.815 47.1796 261.47198 5
182.453 49.106701 254.87399 5
182.04601 46.745701 257.18201 5
184.26801 51.830299 251.30299 5
182.616 55.618099 250.674 5
179.534 46.577801 260.987 5
184.291 52.584999 251.216 5
181.11 53.2925 251.767 5
186.078 56.1525 249.681 5
186.862 48.7696 252.76199 5
178.705 49.370899 256.59201 5
178.823 49.024899 257.32501 5
182.205 57.1446 250.35001 5
183.78101 51.386902 251.907 5
180.226 47.137501 258.85001 5
183.19501 53.4865 250.884 5
183.632 54.685699 250.22 5
184.729 61.017601 250.31799 5
184.633 59.581501 250.052 5
183.228 48.2556 254.67599 5
185.336 51.1446 252.02 5
181.311 49.801201 253.90199 5
183.52499 48.887699 254.464 5
185.397 55.7276 249.936 5
181.755 46.448002 257.87701 5
181.15401 54.9235 251.062 5
185.03799 48.314098 253.993 5
185.009 52.774101 250.886 5
184.769 57.064999 249.978 5
182.043 48.4188 255.252 5
184.187 49.1623 253.936 5
186.39799 53.337898 250.54401 5
183.26401 49.907001 253.672 5
181.855 46.059101 258.55099 5
180.936 46.911999 258.01901 5
187.65601 47.072701 253.858 5
184.36501 53.4077 250.504 5
184.071 48.2827 254.526 5
184.071 50.184799 253.092 5
185.224 53.4091 250.40199 5
180.873 48.631199 255.87601 5
184.24699 46.317299 256.28201 5
183.287 47.487801 255.286 5
184.103 47.432999 254.804 5
181.058 50.444599 253.74001 5
188.134 47.128601 253.06799 5
185.089 49.512798 253.386 5
181.099 47.823399 256.51199 5
181.478 50.680099 252.95399 5
185.855 58.545898 249.739 5
108.928 36.234402 271.73999 2
121.521 33.870602 263.50601 2
108.687 49.795898 267.12399 2
103.181 26.9856 273.72 1
115.675 41.879501 266.056 2
113.579 29.7985 267.91599 2
104.253 42.9492 271.08401 3
101.626 36.627201 275.08499 3
116.347 35.5434 266.81799 2
108.436 29.5112 271.556 2
109.855 43.909 268.62201 2
105.046 32.134102 275.659 1
111.772 38.573502 268.271 2
113.259 33.996899 270.97198 2
107.679 40.1618 269.37201 3
118.392 31.6833 265.67099 2
106.374 46.466702 269.095 3
104.962 37.8675 272.16599 3
119.18 37.334099 264.263 2
108.393 32.721901 273.772 2
111.459 47.0938 267.46201 3
105.75 34.952 273.92899 3
112.665 41.746101 267.48001 2
115.514 32.888 268.89301 2
105.325 29.412701 273.66199 1
111.194 30.560801 270.35699 2
115.194 38.761799 266.20499 2
102.54 40.413502 271.41299 3
106.969 43.566799 269.875 3
113.755 36.072201 268.198 2
111.022 32.5742 272.18799 2
118.595 34.715698 265.55399 2
101.82 38.481899 273.17899 3
113.424 44.203201 266.84 2
105.299 40.019001 270.495 3
111.749 35.946098 269.76999 2
109.686 41.012299 268.177 2
103.679 34.190498 275.936 3
113.346 31.899799 269.71899 2
107.288 38.2043 270.75299 3
116.198 31.398701 267.12601 2
109.409 38.5051 269.49799 2
109.258 46.382702 268.02499 3
117.066 37.501701 265.62399 2
105.904 28.5877 271.56799 1
103.672 36.005901 274.198 3
120.026 33.079201 264.95801 2
107.434 48.2103 268.017 3
111.263 34.895599 271.62799 2
106.654 36.684502 272.95901 3
105.462 44.9944 270.34201 3
108.122 34.814899 273.79901 3
117.166 33.666801 267.92401 2
109.681 31.1889 271.64301 2
113.751 40.134701 266.24301 2
103.372 28.757 274.565 1
109.944 36.709999 270.10101 2
111.87 45.127899 267.59399 3
119.916 35.081699 264.17001 2
106.575 33.1646 275.056 3
107.904 31.035 272.62799 1
114.882 34.962502 269.28201 2
116.993 39.281799 265.008 2
107.849 44.927101 268.91299 3
107.946 42.049198 269.35001 3
109.611 48.0019 267.198 3
113.353 38.087399 267.55701 2
110.211 33.861 273.151 2
104.968 27.7766 272.86899 1
103.847 41.034199 270.371 3
103.227 39.460899 272.72299 3
106.126 41.406799 269.82901 3
111.686 40.312 267.61499 2
110.357 29.0809 270.198 2
114.216 42.7038 266.80099 2
111.36 42.4716 268.26901 2
107.037 31.740999 273.98801 1
104.321 30.2673 274.66501 1
106.137 30.092199 272.388 1
113.428 35.4771 269.82599 2
103.724 37.1838 273.073 3
114.823 36.767399 267.20499 2
118.939 33.189499 266.13901 2
108.607 37.385899 270.58899 2
115.791 40.419701 265.547 2
110.332 39.259499 268.51401 2
104.008 39.6661 271.23801 3
105.328 33.998501 275.25 3
114.306 33.381401 270.099 2
106.657 39.446602 270.19601 3
114.388 30.996901 268.14499 2
112.461 43.388901 267.54501 2
109.297 32.126099 272.83301 2
112.611 36.883099 268.46799 2
106.449 37.281601 271.69199 3
105.101 36.938999 273.23599 3
109.964 45.311401 268.685 3
111.422 31.670099 271.203 2
108.795 28.482901 270.68701 1
102.637 37.1115 273.918 3
108.787 43.301899 269.23001 2
105.944 38.696602 271.091 3
107.576 28.4538 271.43701 1
108.913 35.462002 272.85999 2
111.138 37.694302 269.09299 2
115.361 35.169899 268.034 2
107.977 47.081299 268.52301 3
110.113 35.652 271.88599 2
113.192 39.320999 267.11899 2
102.763 35.723801 275.10999 3
104.083 33.110298 276.57199 3
105.736 30.6437 273.87799 1
112.535 30.873501 269.59 2
117.778 34.778099 266.578 2
118.504 35.904598 265.01599 2
111.313 33.8391 272.45099 2
115.546 37.525398 266.43399 2
107.742 36.672199 271.47198 3
106.96 34.388 274.939 3
118.332 38.272301 264.505 2
115.957 34.273102 269.15201 2
120.692 34.107399 264.46201 2
117.062 31.0282 266.284 2
112.834 32.826199 270.91599 2
111.205 44.563301 268.46899 3
110.696 46.389 268.09 3
119.703 34.029202 265.711 2
110.806 41.293499 267.81 2
107.303 29.9072 271.56299 1
104.811 44.0019 271.00201 3
112.307 34.8559 271.05899 2
104.338 28.373699 273.67401 1
114.718 30.1707 267.37 2
104.315 31.2194 275.526 1
108.876 41.653999 268.724 2
108.662 45.7584 268.823 3
105.097 41.757301 270.237 3
118.347 33.8442 266.966 2
115.741 32.088402 267.93399 2
105.816 28.5697 272.71701 1
108.531 40.549599 268.72501 2
117.49 32.872601 267.17999 2
113.555 41.198002 266.54001 2
105.723 43.886398 270.36301 3
110.058 30.667999 270.73599 2
114.023 34.469398 270.31799 2
112.796 29.9014 268.69699 2
110.27 42.321499 268.41199 2
108.301 48.882702 267.603 3
109.243 47.504299 268.104 3
112.908 35.9146 268.974 2
109.102 34.3913 273.58801 2
116.478 38.416 265.63101 2
118.323 37.140499 264.896 2
107.298 35.500801 273.67499 3
119.26 32.429798 265.44299 2
112.572 45.405602 266.82501 2
112.944 40.364799 267.02899 2
119.628 36.118301 264.20999 2
114.266 39.025799 266.633 2
110.975 36.723598 269.47 2
112.043 32.7169 271.58899 2
109.272 33.170502 273.43799 2
103.696 38.531898 272.73801 3
110.427 34.5686 272.41901 2
110.586 47.6562 267.505 3
110.1 37.631302 269.647 2
105.811 37.175701 272.505 3
117.817 35.524601 265.69501 2
114.886 32.0905 268.68201 2
117.922 32.340199 266.319 2
105.082 35.9417 273.487 3
105.686 32.973801 275.53101 3
111.455 43.464699 268.504 2
111.753 35.663799 270.763 2
107.922 35.8325 272.935 3
112.558 31.7642 270.35699 2
104.531 38.6605 271.68701 3
107.087 29.1679 272.229 1
114.394 40.9963 266.008 2
115.068 39.791901 265.87701 2
117.492 36.592899 265.52899 2
116.36 34.952801 267.634 2
104.224 34.582401 275.189 3
108.619 39.119499 269.578 2
109.95 36.141102 270.92599 2
116.879 36.056999 266.14301 2
116.929 32.076401 266.95099 2
116.7 32.7089 267.767 2
111.774 29.9217 269.862 2
110.828 36.0354 270.168 2
106.662 42.2216 269.98499 3
105.2 42.889599 270.82101 3
110.543 43.1777 268.802 2
110.533 31.6581 271.73801 2
106.942 45.712299 268.85199 3
120.939 33.195099 264.224 2
103.258 34.9646 275.53 3
117.39 34.736198 267.466 2
101.59 37.825298 273.84601 3
110.841 35.7864 271.272 2
112.232 34.231899 271.78699 2
110.483 38.398102 269.108 2
116.319 33.238701 268.505 2
106.493 44.375099 269.672 3
116.44 36.9049 266.11401 2
116.67 34.304901 268.42801 2
111.9 36.553299 269.05499 2
107.961 42.965 269.565 3
113.377 30.629601 268.57999 2
107.758 34.100399 274.53699 3
109.247 48.848598 267.29901 3
108.301 47.767601 267.99701 3
114.645 32.771099 269.495 2
119.553 34.482498 264.92099 2
109.307 44.585602 268.91901 3
114.821 37.951099 266.798 2
104.222 35.365101 274.54999 3
117.7 37.797001 265.02701 2
106.556 35.351398 274.18799 3
113.349 36.977299 267.94101 2
104.435 38.0257 272.90601 3
107.113 47.3517 268.431 3
106.716 28.906601 271.31699 1
112.541 44.295399 267.02899 2
108.701 38.158501 270.12299 2
110.946 45.5401 268.284 3
113.693 32.716099 270.07501 2
111.812 31.248301 270.504 2
109.874 29.8465 270.405 2
113.766 35.431099 268.98901 2
104.711 40.962299 270.07101 3
111.717 39.446301 267.85599 2
108.533 44.131699 269.00101 2
109.187 36.702999 270.56601 2
107.856 46.051998 268.599 3
109.962 46.911598 268.01001 3
104.345 42.1278 270.50601 3
103.907 27.392799 273.43701 1
103.179 39.783901 271.909 3
113.523 31.3713 269.043 2
112.445 39.716599 267.345 2
115.187 30.899401 267.48999 2
102.454 39.052502 272.733 3
111.864 44.0378 267.98599 2
109.542 39.410099 268.84399 2
110.361 40.027699 268.10901 2
105.003 33.570999 275.93301 3
114.143 31.9753 269.11301 2
114.594 43.476799 266.72699 2
112.656 35.5397 270.207 2
114.084 41.920799 266.46799 2
108.989 42.452099 269.02301 2
105.87 42.307499 270.306 3
109.342 37.511101 270.026 2
107.792 39.379299 269.69601 3
111.844 45.946701 267.354 3
112.548 33.515598 271.45001 2
106.985 44.947201 269.224 3
105.892 39.3783 270.58401 3
111.678 41.159698 267.54401 2
106.032 45.778198 269.452 3
105.905 35.7644 273.39899 3
112.795 37.6133 268.08499 2
106.902 40.154301 269.69901 3
110.968 29.750401 270.311 2
114.417 36.1908 267.69101 2
109.491 40.239399 268.44299 2
117.659 38.834202 264.759 2
101.649 37.183701 274.45901 3
105.058 34.997799 274.39899 3
104.264 36.690399 273.48099 3
105.407 31.618 275.108 1
114.974 33.786098 269.802 2
107.558 44.069901 269.564 3
112.835 42.555199 267.58301 2
115.5 36.7332 266.72101 2
108.444 46.459702 268.18701 3
106.514 38.072201 271.004 3
104.315 29.063299 274.12 1
104.162 31.8244 276.056 1
108.412 36.222099 272.37399 2
115.011 42.752499 266.617 2
115.668 35.970001 266.965 2
114.025 38.254299 267.129 2
112.037 42.836201 267.95901 2
105.269 38.417702 271.439 3
106.455 43.0033 270.13699 3
105.818 36.5616 273.327 3
104.513 39.920101 270.67401 3
104.73 32.853901 276.151 3
112.078 37.856899 268.43301 2
105.718 40.507999 270.035 3
103.112 37.6203 273.31201 3
105.581 34.443901 274.60101 3
102.574 36.318802 274.629 3
104.378 35.963299 273.84 3
102.51 38.1273 273.04199 3
111.036 38.9104 268.55499 2
112.361 38.7733 267.79199 2
114.159 37.114201 267.43201 2
106.765 36.016899 273.349 3
107.174 33.626499 274.862 3
115.988 39.021702 265.64499 2
109.926 45.946899 268.23901 3
110.505 44.337502 268.71701 2
113.662 43.235001 266.90302 2
107.221 34.893002 274.41599 3
109.49 42.086899 268.57599 2
103.555 40.246799 271.034 3
115.618 41.168499 265.78601 2
115.168 35.708302 267.47699 2
115.972 38.017101 266.03699 2
107.324 38.805599 270.29001 3
114.897 40.572201 265.63 2
106.62 38.8391 270.647 3
108.413 39.901699 269.09299 2
104.796 39.166599 271.198 3
111.078 39.929699 267.836 2
111.379 46.091801 267.923 3
107.933 37.667099 270.754 3
104.26 33.739498 276.07001 3
114.694 35.245602 268.61801 2
120.227 33.772499 265.14499 2
111.943 41.831799 267.728 2
107.03 41.741699 269.552 3
106.526 40.8311 269.582 3
108.574 36.665298 270.98199 2
113.605 42.393902 267.07901 2
111.807 37.293999 268.828 2
103.336 28.0933 274.24301 1
106.002 44.9165 269.76199 3
114.314 39.6656 266.27701 2
106.445 34.070801 275.354 3
106.442 34.561199 274.45401 3
116.254 36.199402 266.51501 2
110.824 40.584301 268.04401 2
107.45 46.702702 268.84601 3
119.02 35.455601 264.78101 2
107.283 42.552101 269.819 3
103.48 35.549702 274.72299 3
117.097 38.387798 265.26599 2
104.708 37.377701 272.76999 3
112.398 41.1045 267.31201 2
102.317 37.681499 273.564 3
110.422 48.2995 267.25101 3
107.73 36.415001 272.41599 3
107.891 38.3899 270.35599 3
106.947 36.723598 272.319 3
111.221 41.845901 267.93301 2
105.781 37.531399 271.901 3
113.064 38.718102 267.45499 2
116.224 39.9851 265.20801 2
107.12 37.112499 271.586 3
109.28 45.4501 268.73199 3
114.375 35.632401 268.13501 2
113.101 36.348 268.466 2
113.071 43.512299 267.13901 2
105.965 36.511799 272.62799 3
112.557 35.683498 269.53799 2
108.799 48.406101 267.61801 3
107.31 37.6021 271.08099 3
103.962 39.156399 271.694 3
117.402 35.265499 266.27899 2
109.939 47.519501 267.65701 3
107.949 35.328701 273.38501 3
115.024 41.9105 266.23401 2
106.187 32.612999 275.06699 3
107.658 40.7444 269.03299 3
116.453 29.934999 266.03699 2
103.288 22.546499 272.94 1
110.273 22.4984 266.388 1
109.337 28.565399 270.414 2
107.61 22.631399 270.55801 1
113.433 25.799299 265.35001 2
104.888 26.6576 272.41501 1
110.842 26.242701 267.935 1
108.43 25.6891 270.25299 1
113.781 28.2651 266.819 2
111.913 28.5334 268.849 2
105.929 24.542101 271.37 1
108.527 22.0777 268.147 1
105.719 22.214199 271.87299 1
106.65 27.888 271.76099 1
111.612 24.882799 266.22299 1
103.439 25.142799 272.92099 1
108.701 24.2908 268.98099 1
109.879 27.0368 269.51801 1
103.328 26.7759 273.52301 1
104.483 24.050699 272.164 1
111.629 23.255899 265.78799 1
106.92 25.8486 271.086 1
109.252 23.3288 267.43399 1
115.187 29.045099 266.39499 2
108.097 21.492599 269.48099 1
109.684 25.475201 268.504 1
108.145 27.7414 270.73901 1
112.002 26.812 267.224 1
110.517 24.0618 266.625 1
112.898 24.5326 265.379 2
108.096 22.805599 269.33801 1
103.145 23.8787 272.95001 1
114.487 26.481701 265.03601 2
109.309 21.767799 267.27802 1
107.02 24.5865 270.862 1
115.583 30.247299 266.79199 2
107.249 26.9902 271.14499 1
105.704 25.610399 271.62201 1
111.041 28.662001 269.534 2
112.797 27.548901 267.15302 2
109.111 27.502399 270.12 1
105.937 23.1661 271.47501 1
104.044 21.887199 272.64801 1
106.85 22.302999 271.15701 1
108.467 23.0434 268.42499 1
108.026 24.7922 270.38 1
104.594 25.035801 272.14401 1
106.014 27.143499 271.896 1
109.255 26.3605 269.827 1
112.504 25.361099 265.664 2
107.848 23.475201 270.229 1
110.451 27.768299 269.39801 1
107.855 26.232201 270.737 1
103.895 26.32 272.95001 1
110.113 21.707899 266.811 1
109.894 23.284599 266.797 1
104.151 22.771099 272.50601 1
111.239 24.0555 266.09299 1
104.968 22.679701 272.004 1
105.207 23.571301 271.75 1
107.507 21.801201 270.823 1
106.267 26.3846 271.53601 1
106.494 23.7862 271.23499 1
104.94 25.825701 272.103 1
107.508 25.360001 270.75201 1
106.497 25.132999 271.17999 1
104.087 25.497999 272.582 1
105.284 24.9032 271.737 1
107.946 22.1768 269.979 1
107.234 23.691299 270.69501 1
108.672 25.0168 269.92599 1
108.354 21.505699 268.63599 1
108.346 24.309999 269.64099 1
123.015 37.196201 262.134 2
109.693 51.179501 267.077 2
122.57 49.613998 262.77399 2
116.078 43.304199 266.504 2
116.174 50.363201 265.09601 2
123.037 43.162998 262.72501 2
118.38 39.136002 264.24399 2
112.022 46.6535 266.87299 2
119.071 46.5648 263.86499 2
119.644 42.597801 264.345 2
116.074 46.851299 265.724 2
112.628 50.7047 265.44501 2
119.391 50.145401 263.099 2
120.995 35.054798 263.48099 2
122.182 46.219898 263.298 2
121.67 40.401901 262.92401 2
114.09 45.034599 266.70401 2
116.659 41.116699 265.20599 2
120.514 37.536201 263.36099 2
114.052 48.3358 265.60501 2
117.324 44.414398 264.76199 2
109.886 48.867699 266.99399 2
117.646 48.8619 263.508 2
121.28 43.9408 263.83401 2
122.975 39.272301 261.758 2
121.019 47.736599 262.77301 2
112.118 48.448002 265.888 2
122.622 34.878899 262.465 2
119.369 44.734299 263.995 2
118.364 41.094898 264.59201 2
117.375 46.8549 264.27301 2
114.305 50.285198 265.26199 2
113.589 46.818901 266.29401 2
119.797 39.368698 263.37799 2
116.487 45.020599 266.064 2
116.243 48.334999 265.04599 2
121.266 41.7276 263.771 2
121.512 38.512501 262.552 2
111.423 50.192902 266.319 2
118.164 43.124199 264.733 2
122.574 41.722099 263.02499 2
120.588 45.195301 263.302 2
119.181 48.761902 263.08899 2
117.596 50.177101 263.293 2
115.017 45.8619 266.254 2
111.114 48.423901 266.849 2
123.029 44.474899 262.711 2
121.6 36.940399 262.93201 2
120.681 50.186401 263.09601 2
120.324 40.901501 263.61401 2
122.886 40.798599 262.26501 2
114.758 47.3377 265.772 2
110.851 51.3237 266.741 2
121.807 42.805099 263.841 2
120.124 46.526402 263.32001 2
117.151 45.818901 264.802 2
113.125 45.818699 266.716 2
116.81 50.176201 264.142 2
115.255 48.844002 265.29401 2
119.627 38.174801 263.67999 2
122.44 44.064098 263.58801 2
113.205 49.0303 265.34799 2
116.911 42.975399 265.84698 2
120.586 36.065899 263.66901 2
115.129 44.759602 266.44101 2
122.106 47.676899 262.918 2
118.654 45.5905 264.14999 2
119.252 40.957199 263.96399 2
112.47 47.4842 266.23499 2
118.878 43.834999 264.315 2
123.117 35.787998 262.21899 2
116.817 48.1152 264.19299 2
116.759 44.0373 265.871 2
110.589 50.362701 267.00699 2
121.69 35.9258 263.086 2
122.007 34.298199 263.01501 2
121.524 45.419701 263.59399 2
120.628 48.613201 263.069 2
120.517 40.0923 263.05301 2
117.148 42.079201 265.46399 2
116.26 42.290001 266.181 2
123.258 38.319901 261.76401 2
121.999 39.670601 262.341 2
121.342 49.457298 263.133 2
122.42 38.5639 262.20099 2
120.061 47.7365 262.944 2
122.734 46.9529 262.767 2
120.294 44.459599 264.01199 2
118.81 47.428902 263.53201 2
122.233 37.608601 262.513 2
118.806 38.232201 264.17401 2
118.344 49.664299 262.98099 2
117.726 39.7122 264.63501 2
111.345 49.242802 266.26599 2
122.417 44.981499 263.32999 2
113.106 48.186501 265.77899 2
116.883 49.057098 264.08099 2
122.398 48.684601 262.76599 2
120.502 42.426498 263.98801 2
117.598 47.883099 263.729 2
117.25 40.491798 264.83899 2
123.184 42.3111 262.37399 2
118.494 39.996799 263.92599 2
113.499 50.9687 265.31799 2
116.406 45.931 265.97501 2
111.687 50.987499 265.95599 2
121.277 46.314098 263.354 2
121.533 48.531898 262.99799 2
114.718 50.936699 264.78601 2
120.16 43.292999 264.09399 2
118.044 42.285301 265.03601 2
122.558 42.686298 263.30899 2
121.1 39.300999 262.62399 2
118.49 44.594002 264.09201 2
115.571 49.657101 265.28601 2
119.714 45.425499 263.60001 2
117.946 46.207802 264.245 2
109.478 50.355801 267.19299 3
114.254 46.333 266.46201 2
110.603 49.306301 266.98801 2
113.993 49.506699 265.30301 2
115.42 50.662601 265.30499 2
121.238 41.0191 263.28699 2
122.31 36.639301 262.60901 2
118.856 42.670101 264.62601 2
115.179 47.8778 265.29999 2
118.054 46.884201 263.77499 2
119.643 47.245201 263.45599 2
119.759 41.5779 264.13901 2
119.064 39.053101 263.80099 2
113.164 47.3755 265.72299 2
122.75 45.806 262.89801 2
122.871 40.082901 261.89001 2
120.511 38.325401 263.211 2
116.332 47.347198 265.14999 2
122.322 35.575298 262.72198 2
114.002 47.557301 265.892 2
121.072 44.812199 263.82999 2
109.526 49.584 267.04001 2
121.324 47.048698 262.98599 2
111.515 48.128502 266.26001 2
113.102 50.131199 265.24701 2
112.409 49.117199 265.66101 2
123.412 36.458199 262.01099 2
115.679 45.5989 265.98901 2
114.44 44.362202 266.668 2
118.348 48.931702 263.16901 2
116.955 44.629501 265.444 2
119.347 43.262001 264.16901 2
121.466 37.673302 262.86099 2
116.232 44.039299 266.397 2
116.529 41.720299 265.66101 2
113.384 45.0089 266.47699 2
119.611 49.352402 263.19501 2
112.646 46.679798 266.48401 2
114.924 46.681301 266.04599 2
120.487 49.489201 263.01999 2
115.405 43.5359 266.651 2
116.606 49.606602 264.543 2
114.417 48.852402 265.25699 2
118.701 41.729401 264.646 2
112.243 50.1171 265.604 2
118.224 48.138901 263.48801 2
117.817 41.267101 265.01901 2
119.473 40.3526 263.66 2
120.416 39.327499 263.03101 2
114.609 45.2822 266.245 2
120.081 37.139301 263.75601 2
120.991 36.889301 263.289 2
117.135 43.920101 265.28601 2
117.937 43.755001 264.51599 2
117.519 43.229 264.991 2
116.972 46.470798 264.94299 2
111.133 50.677799 266.733 2
111.741 47.507702 266.435 2
114.158 51.07 265.19601 2
117.84 44.594601 264.27399 2
114.307 46.973598 266.117 2
120.821 43.518799 264.091 2
116.613 46.426498 265.57501 2
115.646 44.261101 266.62799 2
116.951 45.484798 265.336 2
117.599 45.405899 264.56799 2
115.453 46.983101 265.67999 2
123.459 37.455502 261.76099 2
116.752 47.5723 264.508 2
120.527 46.944801 263.16901 2
121.66 34.673401 263.319 2
113.925 45.8703 266.543 2
121.29 42.996899 263.98099 2
214.13499 37.900002 259.966 5
208.62601 37.9259 276.62701 5
202.936 36.392502 265.134 5
214.60699 39.286701 270.172 5
207.17101 39.063099 259.80399 5
208.66701 35.9156 269.715 5
202.521 36.609901 270.83099 5
214.127 39.2188 275.84601 5
212.03 37.571301 265.12399 5
207.442 36.4039 265.23401 5
215.244 41.027302 266.11301 5
211.153 37.0443 272.77399 5
205.662 37.066101 273.97101 5
210.71201 37.059502 258.17099 5
204.041 38.000801 261.495 5
209.827 38.172199 262.13 5
205.325 36.1992 267.98499 5
214.17 39.151299 263.185 5
214.358 36.393398 257.138 5
212.37801 37.543499 269.03201 5
213.689 38.772202 272.918 5
209.70399 36.1376 266.965 5
211.586 38.027 276.04401 5
205.304 36.458401 270.944 5
208.57899 36.4366 273.32101 5
205.752 37.004601 263.34698 5
213.994 39.165001 267.42599 5
202.88699 35.8717 268.47198 5
211.858 37.794899 260.565 5
209.87 37.005001 264.41501 5
212.767 36.332699 258.82501 5
207.489 36.135201 267.53101 5
207.425 37.8913 262.22 5
213.746 39.621201 265.263 5
212.98801 38.146999 270.96799 5
203.57201 36.834999 263.297 5
204.71899 36.2756 266.008 5
206.952 37.750301 275.29599 5
206.95399 36.2878 270.20801 5
209.728 38.572899 260.38901 5
206.321 36.6189 272.36401 5
211.21201 37.754799 263.082 5
211.099 36.744801 271.08301 5
205.75301 37.890099 261.478 5
210.339 36.218201 269.60999 5
204.655 36.517799 272.67499 5
207.813 37.121601 263.75 5
212.39 38.583401 261.95999 5
209.438 36.047199 271.12201 5
211.78101 37.670101 274.08899 5
212.33701 37.4478 266.67001 5
214.97 40.068298 274.841 5
209.338 37.201401 275.47601 5
211.713 36.0238 257.659 5
208.89301 36.308201 265.59698 5
206.455 36.224098 266.47299 5
208.612 38.956902 259.487 5
213.31799 38.786499 274.70001 5
214.32201 38.867199 271.599 5
215.77299 41.6922 267.306 5
212.97099 38.529099 276.41101 5
213.58299 38.209801 268.435 5
203.467 36.210899 269.814 5
209.17 37.544899 263.24899 5
214.94 39.3297 273.36099 5
203.923 36.434299 271.311 5
205.27901 36.479198 264.72501 5
205.47501 36.341599 269.55499 5
210.035 36.276199 272.48099 5
213.901 37.071602 258.52899 5
213.256 38.6073 266.07001 5
209.95399 38.062302 259.14499 5
210.707 36.565601 266.151 5
210.644 36.156601 267.93301 5
213.028 38.771301 264.50601 5
208.043 36.253101 272.104 5
203.40199 36.109901 267.26199 5
212.64301 38.772202 263.24899 5
213.104 36.279099 257.55801 5
211.774 37.031399 267.77499 5
208.47501 38.3111 261.56799 5
204.16499 35.954201 268.539 5
208.07201 36.937698 274.37201 5
214.60699 39.8498 264.12299 5
206.476 36.274799 268.39001 5
210.692 36.880402 273.89401 5
211.47701 36.728699 269.11899 5
208.019 36.069199 270.90799 5
210.53999 37.338902 275.46701 5
213.69901 37.803501 269.55701 5
210.75999 37.9375 260.01901 5
209.22099 36.659901 274.35001 5
209.03999 36.019001 267.93399 5
208.036 36.1805 266.48901 5
212.739 38.111301 273.082 5
207.793 36.0322 268.64401 5
214.166 39.9021 266.298 5
214.944 39.710499 267.759 5
202.722 36.1866 266.237 5
211.67101 36.647701 258.88199 5
210.94501 36.929199 265.09799 5
214.765 40.507099 265.22699 5
207.646 38.4352 260.617 5
206.392 36.402199 271.19501 5
208.26401 37.490299 275.48199 5
208.631 36.912899 264.46701 5
213.33501 38.292801 267.28799 5
213.15199 36.9599 259.642 5
206.73 37.34 262.98001 5
214.745 40.553001 266.96201 5
205.368 38.507099 260.68201 5
212.754 37.6954 267.95001 5
212.511 37.800598 271.854 5
206.744 37.384998 274.319 5
206.77499 38.2495 261.45999 5
214.09399 39.216 274.11801 5
212.45399 38.386799 275.50101 5
205.44299 37.409901 262.366 5
209.741 35.998199 268.71899 5
213.37601 38.784599 262.52499 5
208.666 38.670399 260.62201 5
213.614 39.606602 264.242 5
213.63901 38.762798 270.474 5
212.272 37.525002 270.58899 5
204.54401 36.892399 262.99899 5
210.651 37.516499 263.892 5
203.37399 36.535099 264.22601 5
207.522 36.888199 273.54599 5
210.78799 37.528198 259.112 5
204.39101 36.315399 270.04401 5
206.82001 36.895 263.82101 5
204.345 36.135101 267.34201 5
210.218 38.268101 261.13599 5
203.87 36.1759 266.44699 5
205.259 36.245602 267.07599 5
208.87601 37.980801 262.31 5
206.496 37.7299 262.216 5
205.616 36.304001 266.19101 5
204.367 37.453499 262.108 5
203.804 36.375801 265.259 5
209.354 38.435398 261.44199 5
211.25301 37.950199 262.23599 5
211.104 38.047001 260.909 5
205.94901 36.6716 264.22699 5
210.481 38.092602 262.80399 5
204.73199 36.558399 264.09201 5
206.19701 38.489201 260.702 5
209.311 36.729198 265.01901 5
211.563 37.409401 259.896 5
207.271 36.224998 266.19901 5
203.77 37.179798 262.59399 5
204.528 38.3027 260.92801 5
204.985 37.817001 261.65601 5
207.733 36.684299 264.57599 5
206.757 36.316601 265.66299 5
206.08099 36.075699 267.10001 5
155.701 28.3342 275.28201 2
155.40601 42.426899 260.96799 2
165.76401 40.069 279.293 4
149.855 30.5914 263.80701 2
159.05901 38.377602 270.745 2
155.039 32.2215 268.73901 2
160.233 35.696301 280.05399 4
151.33 37.028999 260.38 2
155.71899 37.605202 264.983 2
153.33501 26.4856 268.97198 2
158.57201 33.452599 273.77499 2
163.25101 39.617699 274.12399 2
158.688 41.811798 267.13699 2
152.953 33.888 264.73999 2
161.563 39.5467 280.45599 4
160.75999 37.314301 276.17899 2
155.86301 30.2206 271.94501 2
157.041 36.492802 268.27301 2
152.041 29.4555 267.39401 2
160.61301 41.533901 270.16299 2
154.483 39.083698 262.03 2
150.194 33.5905 262.02701 2
157.132 42.213402 263.939 2
157.35699 34.184101 270.63 2
154.541 26.9195 271.90302 2
155.364 34.5284 266.80399 2
152.923 40.489799 259.98499 2
159.492 36.225101 273.591 2
153.62 29.040701 270.276 2
157.524 30.4575 275.375 2
153.73599 36.6539 263.14001 2
160.655 39.1423 273.371 2
162.701 39.451 276.80099 2
157.09399 39.770302 265.47501 2
152.623 31.813101 266.28799 2
159.448 33.900501 276.11499 2
158.12 39.449501 267.797 2
150.98801 28.453501 265.39499 2
161.304 38.1922 278.41101 2
152.048 34.910198 262.81299 2
164.938 39.931 276.98099 4
162.52499 40.463001 272.125 2
163.713 39.178699 278.953 2
158.70599 36.349499 271.63199 2
153.48599 30.8288 268.02701 2
156.06799 41.2145 262.45999 2
151.567 32.536701 264.358 2
156.435 29.631201 273.73401 2
156.08701 36.366001 266.556 2
154.004 33.056599 266.612 2
157.709 31.9081 273.14301 2
156.166 39.731701 263.879 2
157.914 36.360001 269.96701 2
156.349 34.583599 268.34399 2
155.381 27.219801 273.87799 2
151.323 30.747999 265.603 2
156.57001 29.0945 276.67899 2
156.53101 32.589001 270.46201 2
152.685 27.915199 268.16501 2
158.218 38.443699 269.21701 2
159.916 39.716099 271.29401 2
151.69901 38.6129 260.008 2
157.03 38.494301 266.54501 2
157.903 33.529999 272.28201 2
154.021 35.6087 264.36499 2
161.01601 38.687401 274.87399 2
159.26801 34.606201 274.68201 2
154.461 28.497801 271.91501 2
155.23199 30.644899 270.56699 2
164.20399 39.768002 275.35199 2
157.85201 42.4408 265.29501 2
159.526 40.848999 269.31799 2
158.207 31.789101 274.58499 2
153.345 38.238899 261.46201 2
161.03 40.631199 271.90201 2
161.459 38.635899 276.37 2
155.14 36.199402 265.177 2
158.147 34.951599 271.63199 2
158.802 35.0373 273.05099 2
153.61099 27.6106 269.867 2
156.72099 31.708 271.60999 2
152.049 36.433899 261.5 2
159.69099 38.4645 272.047 2
158.907 32.6903 275.52802 2
157.40601 30.6726 273.86401 2
160.22099 36.819199 274.95499 2
155.367 38.561001 263.81201 2
161.591 40.0135 273.89301 2
159.509 41.896198 268.23499 2
162.412 39.468601 279.26599 4
155.634 33.426201 268.293 2
154.07201 40.863701 260.60199 2
150.657 32.528801 263.375 2
160.938 37.229698 279.26099 4
151.74001 33.785599 263.46201 2
154.69701 35.0224 265.60599 2
155.63499 28.5807 273.98199 2
150.83299 35.8988 260.85999 2
163.99699 39.149799 277.47699 2
150.422 34.700901 261.37701 2
154.73399 31.032 269.423 2
159.618 37.381802 272.76599 2
155.213 41.191399 261.48401 2
152.83701 28.989401 268.862 2
154.617 37.541901 263.60101 2
152.49899 30.6054 267.07199 2
154.851 29.6458 271.26401 2
156.506 29.2827 275.04999 2
156.61301 40.907398 263.76801 2
158.701 39.627201 268.896 2
152.836 38.9986 260.603 2
156.907 30.91 272.73801 2
164.505 39.567299 279.83099 4
155.59399 29.356701 272.797 2
155.599 39.936501 262.79901 2
156.22 35.533901 267.45999 2
157.256 41.343899 264.80701 2
152.99699 35.537998 263.27399 2
158.52 37.280102 270.505 2
162.52299 39.2854 278.065 2
154.035 37.991299 262.435 2
153.967 39.7397 261.146 2
159.882 35.026299 276.24399 2
151.446 35.3279 261.86401 2
159.34399 39.660198 270.245 2
155.58501 31.8925 269.75 2
157.242 37.553101 267.784 2
160.39 36.214001 276.33701 2
152.44099 37.7967 260.88199 2
153.259 33.089298 265.72501 2
157.14999 32.7612 271.431 2
159.80901 35.7449 274.92599 2
154.853 28.165501 272.94299 2
153.073 37.237202 261.94901 2
157.71899 35.260799 270.48499 2
158.019 41.341599 266.345 2
156.01601 42.1917 261.89499 2
150.42101 28.984501 264.57599 2
163.96201 39.256001 276.35501 2
163.142 39.394699 275.31699 2
160.416 38.187901 274.065 2
159.077 37.547901 271.5 2
150.666 30.9711 264.72601 2
161.752 39.341801 275.565 2
156.48199 33.965599 269.24701 2
149.894 31.585899 263.33801 2
157.64301 37.565701 268.80801 2
151.015 34.264999 262.302 2
156.935 35.3675 268.83401 2
154.311 32.100498 267.935 2
165.27699 39.920101 278.33401 4
152.705 36.273399 262.349 2
154.12199 27.2883 270.75101 2
154.991 27.1052 272.85599 2
154.797 36.813202 264.37201 2
153.343 30.049999 268.741 2
154.464 29.9792 270.258 2
160.42799 39.5499 272.423 2
158.429 40.457802 267.745 2
150.722 29.9475 265.28 2
156.242 37.483398 265.87799 2
162.196 39.855099 274.72699 2
152.123 39.5499 259.85699 2
163.491 39.462299 280.01901 4
159.093 36.265499 272.58899 2
156.351 38.349602 265.33899 2
156.66701 37.069698 267.01901 2
151.60899 31.6362 265.198 2
161.36501 40.340302 272.957 2
153.26401 31.771799 267.07101 2
151.629 29.9182 266.595 2
156.80299 40.326401 264.573 2
157.75101 39.756001 266.91 2
161.571 38.527901 277.49899 2
151.29201 29.1085 266.09 2
157.44901 40.692902 265.62601 2
159.996 37.0256 274.01501 2
151.951 31.005899 266.35599 2
156.08 38.984299 264.51501 2
160.912 37.2313 277.14499 2
152.694 29.964899 267.91501 2
149.96899 32.492802 262.685 2
160.063 38.323799 272.93301 2
160.965 38.157101 275.677 2
157.61301 38.434601 267.673 2
155.375 35.382599 266.181 2
154.69 33.2896 267.23999 2
158.49001 34.1348 273.08701 2
162.492 40.151299 273.63101 2
157.479 36.325401 269.12799 2
152.12199 32.437698 265.11499 2
161.47301 38.817101 279.09299 2
156.645 41.850601 263.22501 2
158.98599 33.729698 274.84399 2
158.192 36.060501 270.80701 2
153.845 29.815901 269.582 2
160.106 41.587299 269.39001 2
150.045 29.528601 263.93201 2
155.114 40.2094 262.06299 2
164.782 39.9939 276.03201 4
158.87399 40.4785 268.60199 2
154.955 32.814701 268.047 2
151.85699 28.7136 266.89301 2
154.821 41.748501 260.80701 2
155.703 36.783001 265.58099 2
160.63499 36.498299 279.69501 4
150.896 31.998899 264.08401 2
154.724 38.5681 262.73001 2
152.42799 28.871 268.069 2
160.513 37.712502 274.814 2
162.37601 39.7444 280.112 4
154.125 33.797901 266.13901 2
157.44299 33.592701 271.332 2
152.786 34.3713 264.01599 2
155.468 33.915401 267.57999 2
159.327 35.430099 273.91501 2
154.002 30.591 268.931 2
154.088 34.954201 264.98401 2
150.69 33.2314 262.86401 2
152.431 33.175598 264.79999 2
153.423 35.044701 264.11499 2
153.186 39.760799 260.45001 2
158.89 34.4324 273.76599 2
160.241 40.9375 270.62201 2
161.30499 39.401699 274.39099 2
158.675 35.672901 272.17801 2
153.494 38.989201 261.11099 2
159.614 40.420799 270.02301 2
161.153 37.990601 276.789 2
152.198 33.5695 264.12201 2
154.12199 36.374599 263.80301 2
153.22 28.710699 269.526 2
153.69501 37.281101 262.633 2
152.15601 35.689602 262.293 2
164.707 39.480801 278.68301 4
154.71899 33.875599 266.69699 2
154.241 32.646301 267.30399 2
158.213 37.727299 269.543 2
151.30299 33.145401 263.54401 2
152.466 37.1548 261.32001 2
155.789 31.0156 270.95901 2
161.575 45.827499 262.26501 4
172.74699 41.5424 278.26401 4
174.68201 46.871899 267.28699 4
163.58299 40.801998 272.16501 2
169.218 46.886101 262.112 4
170.77901 42.861401 271.37799 4
166.31599 39.9375 278.25601 4
159.649 42.633999 267.47501 2
165.98801 43.1091 266.948 4
156.72701 42.716801 262.89401 2
175.47 42.178902 273.69699 4
170.44501 45.372101 266.53699 4
169.437 41.086498 275.09299 4
165.61301 45.0065 263.18701 4
175.32899 44.081501 270.573 4
167.40401 41.7668 270.97299 4
162.884 44.4408 265.341 4
162.701 41.917702 268.896 2
166.246 40.0298 274.14099 4
172.433 45.0312 269.12399 4
159.87199 44.1605 264.11099 2
169.164 40.702702 278.784 4
169.259 43.611099 268.638 4
167.54601 45.385502 265.33801 4
172.868 42.4832 274.63901 4
172.713 47.215302 265.42099 4
173.439 43.261002 272.12701 4
165.737 42.033298 269.172 4
174.511 41.598598 276.55801 4
166.83701 47.349998 262.15399 4
164.00999 46.2061 261.81699 4
167.911 39.7798 276.54099 4
161.612 41.157902 270.98901 2
170.92799 40.775002 276.754 4
161.479 42.779301 266.185 4
157.614 44.769402 262.935 2
169.312 45.843102 264.07001 4
157.98801 43.285 264.853 2
168.851 41.698299 273.10999 4
164.11301 40.072899 274.32401 2
167.776 44.162498 267.24399 4
165.595 44.040901 265.04501 4
164.024 43.602699 267.37299 2
172.334 46.153999 267.133 4
165.29601 41.489899 273.16299 4
165.418 41.654202 271.09399 4
162.91299 45.6651 263.798 4
171.241 41.962101 273.81299 4
166.888 46.267899 263.668 4
170.46201 47.2243 263.70001 4
174.73399 45.538898 268.53101 4
175.271 43.251301 272.24399 4
159.686 43.606602 265.96301 2
167.80299 39.668701 279.30399 4
159.64101 45.320301 262.80301 2
168.67799 42.978298 270.17099 4
170.84801 44.202202 269.06799 4
167.562 43.205502 268.66599 4
161.02699 41.755001 269.23499 2
166.302 39.8727 275.961 4
164.20599 44.5051 263.95099 4
164.39799 42.994499 268.88699 4
172.04601 44.216499 270.49399 4
161.267 44.5005 263.32999 4
161.222 42.332001 267.73901 2
170.60001 46.277302 265.211 4
167.244 40.893799 272.29501 4
173.006 41.9561 276.73001 4
169.459 44.145901 267.20901 4
170.218 41.7584 272.439 4
168.92999 44.900902 265.75201 4
161.321 43.615398 264.547 4
173.98801 44.539001 270.987 4
174.526 41.7416 275.091 4
158.41701 44.5616 264.298 2
167.892 40.6688 273.56699 4
156.703 44.059898 262.11099 2
173.724 45.232899 269.64499 4
165.998 46.117401 262.42001 4
163.403 41.925999 270.10001 2
171.261 41.2244 275.49899 4
171.759 43.153599 272.271 4
167.914 46.7318 262.952 4
168.215 40.438499 274.83301 4
164.28999 44.0168 265.25 4
171.562 41.032299 277.883 4
173.993 42.466499 273.953 4
166.728 44.413399 265.67499 4
169.63699 40.726601 276.51401 4
162.84801 43.031799 267.50299 2
170.892 44.886799 267.94901 4
166.826 39.326 277.099 4
166.011 40.783901 271.901 4
173.13901 45.745701 268.34201 4
170.745 43.448799 270.27899 4
164.203 42.147301 271.02899 2
164.576 45.3652 262.53601 4
168.55901 42.067501 271.96201 4
162.446 41.158699 269.83701 2
172.18201 42.720901 273.58701 4
169.752 42.439499 270.92099 4
163.582 40.135101 273.16101 2
163.821 44.393002 266.521 4
171.541 46.960701 265.02399 4
163.235 41.0509 271.07901 2
169.683 41.328201 273.83801 4
166.04601 40.4464 273.01001 4
171.842 41.972198 274.836 4
171.911 45.4179 268.05499 4
167.961 39.757999 277.685 4
157.595 43.703701 263.867 2
166.83 42.300999 269.33499 4
166.66701 39.671398 279.33801 4
163.36099 45.979698 262.71799 4
166.995 39.6423 274.883 4
168.713 40.441002 277.069 4
162.513 46.437199 262.17001 4
173.769 42.060001 275.892 4
169.84399 45.440601 265.49399 4
173.13901 43.059799 273.15201 4
172.99699 46.751598 266.513 4
165.60201 40.8965 274.08899 4
159.14 44.202499 265.00699 2
163.41299 42.922798 268.48499 2
164.32001 41.169102 272.836 4
166.709 45.424301 264.284 4
166.894 43.518398 267.31299 4
164.791 40.3699 275.078 4
171.23199 46.2631 266.052 4
167.726 42.836102 269.63699 4
165.132 41.805099 272.17599 4
158.832 43.018902 266.06201 2
160.82899 43.154598 265.465 4
162.59 44.902901 264.46301 4
170.44701 40.950401 274.918 4
174.759 42.8904 273.40399 4
161.951 45.4641 263.15302 4
168.216 47.024899 261.94699 4
164.56799 40.8493 273.841 4
168.366 45.940498 264.43201 4
161.838 43.3097 265.36499 4
165.328 41.9151 270.09201 4
167.336 39.395401 278.45599 4
173.685 46.6903 267.24301 4
164.53999 42.585701 269.793 4
165.86501 40.250401 277.41599 4
165.123 42.810001 267.34399 4
173.679 41.731098 277.41901 4
166.754 42.895302 268.06201 4
161.47099 41.500198 270.07901 2
168.728 43.916199 267.823 4
165.741 40.4604 275.306 4
165.04401 43.616699 265.729 4
165.414 44.506302 263.99799 4
170.278 40.4991 277.42099 4
162.48599 42.263401 268.01599 2
172.76199 42.111 275.80801 4
164.22501 41.559898 271.79501 2
172.306 41.528801 277.23401 4
169.416 40.724899 277.85999 4
157.056 43.6147 262.936 2
168.147 42.363701 270.67001 4
171.515 42.503201 272.95001 4
167.05 40.247398 273.47601 4
161.755 41.751801 268.63199 2
169.709 42.907001 270.10101 4
161.98599 42.578098 266.95401 4
166.37801 43.751999 266.23599 4
168.558 41.054298 274.22299 4
162.998 43.614799 266.79401 4
171.319 45.553501 267.353 4
169.80701 46.9837 263.091 4
168.44701 40.1502 278.591 4
171.905 41.621799 276.02802 4
163.491 45.093399 264.23099 4
170.748 46.8661 264.496 4
160.739 42.837898 266.72601 4
174.084 43.3414 272.98001 4
167.755 46.4519 263.89401 4
170.04401 40.639999 279.017 4
174.57201 44.932201 269.5 4
166.64101 41.526798 270.53699 4
168.45599 43.367401 268.98599 4
166.882 41.1353 271.49899 4
167.701 39.860901 275.40399 4
166.60001 46.6357 262.84201 4
175.72501 41.667702 274.388 4
158.778 45.557201 262.823 2
171.10201 41.499401 274.565 4
163.68201 45.241699 263.095 4
164.35201 43.6922 266.453 4
173.827 46.245499 268.11099 4
167.192 42.1488 270.12201 4
169.925 46.552101 263.87701 4
167.48 40.057598 274.21701 4
172.267 46.669399 265.93399 4
158.313 44.962502 263.53101 2
169.565 44.767899 266.33401 4
170.336 40.740101 275.75601 4
165.099 43.247101 266.59399 4
165.255 42.3391 268.51801 4
168.71001 40.7785 275.45599 4
173.189 44.2271 271.09601 4
167.647 44.935001 266.06799 4
165.319 45.810299 261.98499 4
163.403 45.092602 265.13901 4
162.453 40.7141 271.17599 2
173.67101 42.333199 274.89499 4
170.565 41.439098 273.77899 4
159.392 42.9702 266.733 2
165.923 42.655899 267.66501 4
159.312 44.6852 263.745 2
167.209 47.9473 261.681 4
167.431 45.763199 264.55701 4
169.144 43.278198 269.457 4
175.286 43.756599 271.34399 4
160.17799 43.698399 264.73199 2
169.802 41.999298 271.76199 4
171.77499 41.116699 278.681 4
161.882 44.570599 263.88199 4
171.50101 44.709599 269.02499 4
168.85699 46.350601 262.617 4
170.327 43.616501 269.30399 4
164.731 46.4412 261.509 4
169.867 43.877399 268.16 4
162.19299 43.176498 266.155 4
174.64101 46.264 268.099 4
172.38901 43.214802 272.78201 4
170.60001 42.347698 271.98099 4
163.783 44.680099 265.72101 4
160.116 44.767101 263.14801 2
170.51601 45.790901 265.854 4
168.535 44.344898 267.05099 4
172.69701 44.7439 269.82599 4
173.07201 46.206902 267.44501 4
171.77499 43.716599 271.05499 4
173.255 42.7644 273.91501 4
171.55701 44.312199 269.87799 4
167.91499 41.688301 271.70001 4
174.541 44.005199 271.28101 4
168.89999 45.977299 263.41599 4
166.217 46.9114 261.96399 4
170.492 44.339199 268.33099 4
164.89101 44.7206 263.19299 4
175.13699 44.511501 269.82599 4
166.371 45.858601 263.259 4
163.246 46.481499 261.922 4
168.968 45.438702 264.63101 4
167.935 43.694302 268.19901 4
174.00301 43.6301 271.755 4
167.233 47.108501 262.76599 4
171.849 46.200401 266.54199 4
172.231 43.589401 271.854 4
160.159 45.610802 262.32199 2
172.998 43.741501 271.651 4
174.267 44.814499 270.18701 4
172.46001 44.0266 271.14001 4
166.744 44.877701 265.07901 4
168.41901 44.703701 266.272 4
171.55499 41.159698 276.91699 4
