# .PCD v0.7 - Point Cloud Data file format
VERSION 0.7
FIELDS x y z label
SIZE 4 4 4 4
TYPE F F F U
COUNT 1 1 1 1
WIDTH 1183
HEIGHT 1
VIEWPOINT 0 0 0 1 0 0 0
POINTS 1183
DATA ascii
97.391098 43.772999 272.63199 3
94.709099 49.2887 270.755 3
104.924 45.902302 270.35699 3
104.096 47.481201 269.746 3
92.9963 43.231499 273.38901 3
99.101997 48.459702 270.327 3
92.346298 46.547798 272.30801 3
91.862297 42.6884 274.957 3
101.293 59.106602 268.11801 3
102.047 42.7005 271.836 3
101.804 48.693401 269.15701 3
93.3405 39.962299 276.164 3
94.180901 45.068901 272.53101 3
96.378197 44.447601 272.978 3
101.914 40.706001 272.09201 3
91.297798 45.7855 272.83801 3
96.416 39.561901 276.02802 3
92.496803 47.909401 271.68201 3
97.885002 39.699699 275.23801 3
91.522697 44.472801 273.561 3
96.791199 48.173599 270.854 3
103.093 47.376801 270.091 3
98.467003 42.092899 274.078 3
103.881 44.254101 270.944 3
100.425 47.604 269.91199 3
104.458 48.389801 269.103 3
97.384903 45.3591 272.129 3
95.353897 41.8493 275.50699 3
96.6679 47.047901 272.121 3
95.203697 45.0028 273.064 3
102.432 45.9258 270.22501 3
94.154404 48.048 271.23999 3
102.898 43.451199 271.45401 3
100.652 39.290798 274.207 3
95.169601 46.6577 272.38599 3
94.4375 39.9058 275.92499 3
100.53 38.548698 275.129 3
98.669197 44.283401 272.57599 3
93.508598 46.948002 271.69901 3
100.099 48.850201 269.50601 3
105.348 46.986401 269.75101 3
99.185997 41.416401 274.55301 3
93.539902 42.471401 274.31799 3
102.234 44.832699 270.79901 3
99.546402 39.7038 275.504 3
95.218597 40.722301 275.80801 3
95.9104 45.766998 272.01001 3
100.745 42.901699 272.42001 3
103.193 48.297001 269.134 3
97.947197 39.337299 276.23199 3
95.980904 49.217999 270.67401 3
92.758797 44.8531 272.95001 3
104.984 44.3829 270.87799 3
102.93 41.3041 271.07599 3
101.06 46.053299 270.80801 3
93.634399 41.3848 275.58701 3
105.443 48.472801 268.582 3
95.7323 47.665199 271.67801 3
97.708603 49.003201 270.483 3
99.223999 42.601002 273.267 3
98.413597 46.0149 271.953 3
95.487602 42.567402 274.642 3
91.085503 47.306702 272.58499 3
96.894699 41.280201 275.34799 3
103.897 42.878502 271.18201 3
100.673 41.0056 273.34201 3
91.672203 43.453098 273.81699 3
103.378 46.379601 269.715 3
93.353897 48.727501 270.69901 3
101.504 47.323799 269.91699 3
94.983101 43.883999 273.26501 3
97.440399 47.567402 271.44 3
100.261 44.7183 271.815 3
98.958397 43.330299 272.914 3
101.406 46.8013 270.58801 3
94.734299 43.212002 273.73401 3
99.362396 41.890202 273.86099 3
100.835 39.5933 273.423 3
96.493301 43.616501 273.173 3
106.899 47.806999 268.26099 3
93.867104 42.9986 273.70499 3
97.607903 41.625401 274.65399 3
101.428 41.371101 272.39099 3
99.952499 38.969601 275.76901 3
103.113 45.455002 270.52802 3
103.912 49.0238 268.82001 3
92.853996 42.409302 274.87601 3
94.598198 42.537201 274.63 3
93.271202 47.912701 271.17599 3
99.129501 47.6077 271.151 3
102.191 41.620899 271.42001 3
97.497101 48.216999 270.47501 3
98.161697 45.2425 272.30701 3
100.243 47.216599 270.633 3
92.040199 45.601002 272.56799 3
98.124496 47.834301 271.091 3
104.429 43.496399 271.146 3
100.444 45.412201 271.41901 3
106.119 48.057701 268.229 3
94.871696 41.6567 274.84299 3
102.301 44.000099 271.30301 3
101.546 48.2272 269.79099 3
94.832603 47.2733 271.94501 3
101.104 38.580002 273.52499 3
104.095 45.910599 270.34 3
100.624 41.673801 272.84698 3
100.155 41.436199 273.83401 3
102.228 46.712898 270.47601 3
92.024597 49.2631 270.72299 3
97.393501 44.572498 272.83401 3
91.543098 47.717999 271.556 3
105.455 45.074799 270.35101 3
98.846199 40.235901 275.048 3
99.497299 45.226898 272.19501 3
98.723701 46.830799 271.474 3
102.316 47.802299 269.56699 3
96.024002 42.921299 273.64899 3
96.112701 41.7654 274.74799 3
99.772598 44.325699 272.45901 3
97.965599 42.5909 273.332 3
99.762703 43.245499 272.66199 3
93.9478 43.855 273.27399 3
99.922997 40.380001 274.80801 3
101.437 44.2995 271.20401 3
93.590302 46.1521 272.37601 3
95.097801 47.9254 270.798 3
92.614098 47.991798 270.573 3
105.865 47.585602 268.87701 3
101.247 45.1422 270.952 3
97.5215 40.485802 275.49399 3
101.213 40.412899 272.90601 3
99.641296 47.727001 270.423 3
92.3423 39.9958 275.772 3
95.511398 39.750301 276.12 3
100.837 38.339199 274.272 3
98.353798 41.0345 274.742 3
93.370796 45.262798 272.02802 3
98.818001 39.235298 275.88501 3
100.731 43.903702 271.89401 3
96.166702 40.804699 275.72101 3
105.67 46.048401 269.79099 3
91.848396 48.436798 270.948 3
99.354401 46.124001 271.76001 3
92.005798 41.9408 275.556 3
90.848503 48.3825 271.35199 3
106 48.932598 267.93399 3
100.119 42.4048 273.05499 3
107.338 62.715801 265.664 3
101.877 60.494499 267.758 3
113.738 53.684799 264.755 3
112.402 57.498901 265.06 3
107.282 60.507 266.08301 3
104.131 64.155098 267.73801 3
112.394 59.659599 264.59399 3
106.51 58.8382 266.668 3
97.020401 42.759998 273.76501 3
103.374 68.145401 269.23599 3
114.564 56.482601 264.569 3
109.718 54.481602 265.97 3
105.316 57.984901 267.54001 3
110.23 56.908199 266.23599 3
113.162 52.635201 264.944 3
109.674 53.325901 266.02899 3
107.485 58.8139 266.47601 3
114.603 57.4687 264.29999 3
102.428 61.2784 267.224 3
108.559 53.236301 266.76401 3
106.231 57.796902 266.73199 3
104.779 66.0224 268.81799 3
104.744 64.574303 268.01501 3
104.871 61.725601 267.448 3
113.427 57.666199 264.79199 3
105.82 61.300301 266.677 3
114.864 52.7878 264.67401 3
108.413 57.302101 266.06601 3
102.822 62.169701 267.42001 3
105.544 59.160599 267.17999 3
113.014 60.982601 264.26099 3
110.912 57.6824 266.08899 3
103.414 61.355701 267.186 3
103.984 66.356697 268.95599 3
108.201 54.285801 266.48099 3
113.107 54.754398 264.673 3
113.812 59.682499 264.267 3
101.55 63.355202 267.43301 3
110.835 58.5826 266.07599 3
109.01 56.2001 266.384 3
106.139 65.446899 267.38 3
109.397 59.474602 265.66699 3
108.36 62.9604 265.974 3
106.18 68.267303 268.564 3
107.64 64.290199 266.11499 3
111.805 58.239101 265.63901 3
108.152 58.191299 266.45001 3
112.113 56.278599 265.017 3
107.336 56.577 266.09799 3
112.193 61.617001 264.84601 3
110.117 57.877899 266.00201 3
112.667 64.759804 265.04999 3
104.382 57.611401 267.746 3
106.553 60.949299 266.10999 3
114.924 53.660099 264.49799 3
114.806 54.480701 264.10599 3
111.094 59.321701 265.59698 3
111.765 59.962101 265.25 3
106.582 56.967999 266.46701 3
104.064 67.186302 268.98999 3
112.999 56.958698 264.61401 3
101.486 64.756599 268.13199 3
112.172 60.639702 264.673 3
110.86 55.581299 266.08499 3
113.002 60.159599 264.258 3
108.544 60.5737 265.76401 3
108.273 61.8465 265.729 3
110.087 61.222198 265.61099 3
111.014 53.115398 266.245 3
105.437 67.796303 269.17999 3
102.955 63.965 267.43701 3
109.099 58.355701 266.17099 3
104.491 62.93 267.81601 3
105.464 63.783901 267.57101 3
96.675598 37.856201 277.47101 3
99.656502 38.171501 276.38599 3
92.605797 38.333401 277.32599 3
100.399 34.104 279.285 3
103.003 32.734901 277.17801 3
102.142 34.3438 276.97198 3
94.412498 38.227402 277.54001 3
98.018501 38.491501 276.73801 3
103.346 60.507599 267.202 3
101.464 33.012798 278.34 3
95.473701 39.3745 276.85199 3
99.480301 37.247002 277.31699 3
103.486 33.449902 276.858 3
94.966202 37.293701 279.186 3
93.530197 38.347301 277.78799 3
96.464104 36.657101 280.11899 3
94.5411 37.853001 278.49701 3
100.639 37.4762 275.78 3
99.732803 46.923401 271.19 3
92.184502 40.855099 276.06699 3
106.921 48.486599 267.72198 3
91.238098 49.202202 271.013 3
101.497 39.1642 272.91299 3
101.956 36.059898 275.53799 3
96.326401 38.154598 278.103 3
93.436897 37.474602 278.02802 3
95.244598 38.5741 276.52899 3
94.094597 39.474602 276.487 3
93.718597 38.463402 276.69 3
102.533 34.8139 276.23099 3
100.634 35.776699 277.54599 3
98.802002 36.587101 278.755 3
100.088 35.707199 278.70401 3
102.247 32.664398 277.65601 3
101.088 35.987598 276.38901 3
95.3974 36.796398 280.026 3
101.677 34.9958 276.74301 3
96.173302 37.268902 279.35501 3
102.057 33.687 277.61401 3
98.0746 37.074299 278.742 3
93.9991 36.997299 278.72601 3
100.809 37.8395 274.91501 3
100.184 36.307701 278.10101 3
95.824898 38.187401 277.52701 3
100.608 33.2859 278.966 3
97.078697 38.381802 276.879 3
92.807503 39.288601 276.74701 3
102.204 35.467098 275.88199 3
108.455 58.8479 266.27802 3
101.558 61.229401 267.63199 3
104.766 59.381302 267.259 3
112.545 55.290401 264.79001 3
103.779 59.150101 267.802 3
107.334 59.757801 265.953 3
98.659203 39.0224 276.29901 3
101.091 33.999901 277.91699 3
98.527802 37.4193 277.66599 3
95.6744 37.656502 278.452 3
96.868401 37.675098 278.53101 3
99.306999 36.934399 278.22699 3
100.069 34.952801 279.16 3
92.912697 37.011398 279.03101 3
100.646 36.4715 276.95901 3
100.207 37.471001 276.64401 3
98.902702 37.9818 276.823 3
96.183403 38.786701 276.539 3
100.557 35.041302 278.19101 3
101.162 36.6731 275.672 3
97.572403 38.100201 277.83401 3
102.926 34.156799 276.47699 3
92.731697 37.800098 278.04001 3
94.420502 38.8167 276.754 3
101.014 35.254501 277.065 3
99.410896 36.0662 279.04901 3
100.989 51.692001 268.69501 3
98.086998 50.090801 270.23199 3
103.535 51.548599 268.39301 3
98.410698 53.468601 269.67801 3
101.026 56.977299 267.84601 3
94.465897 57.501099 269.59698 3
104.266 55.8409 267.89001 3
102.601 52.725201 268.53699 3
100.648 40.283401 273.78 3
97.008301 50.3162 270.203 3
96.963699 52.1371 270.319 3
106.216 54.739399 266.75699 3
94.566498 54.9179 269.87299 3
91.488403 50.010799 270.76001 3
92.7808 49.497398 270.32599 3
101.948 58.733898 268.16299 3
94.3386 55.9655 269.552 3
93.202904 50.319302 270.323 3
99.222504 53.369999 269.38699 3
103.958 54.032501 267.63501 3
106.634 53.249599 267.177 3
93.117203 51.387901 269.96899 3
94.684303 49.8255 270.35999 3
93.011597 54.961201 269.39801 3
93.823097 49.611301 270.465 3
104.976 53.4874 268.099 3
92.210999 52.402599 270.42499 3
95.644096 57.7416 269.51801 3
90.801598 54.504002 270.12299 3
97.205399 57.678398 269.103 3
101.914 53.363602 268.39099 3
94.1222 54.152 269.79901 3
93.344101 55.787201 269.17099 3
100.329 49.760799 269.05499 3
102.46 54.934101 267.92999 3
97.884598 57.236698 269.32501 3
101.913 55.702202 267.80499 3
92.749901 56.689602 269.63199 3
101.275 52.506599 268.646 3
95.635002 50.7528 270.48099 3
102.983 56.674 268.05701 3
103.032 50.906898 268.71399 3
106.413 50.4636 267.56201 3
91.061096 53.406898 270.69501 3
99.554703 51.278 269.67899 3
107.33 51.549702 267.23001 3
97.4422 51.094398 270.164 3
91.937202 54.221001 269.82999 3
97.8517 54.0868 269.30701 3
101.413 54.9468 268.07199 3
101.423 57.773102 268.05399 3
94.631302 51.497101 270.298 3
94.802902 53.770302 270.16101 3
99.048897 54.691299 269.09201 3
90.681099 52.425301 270.957 3
105.256 51.458801 268.16699 3
100.067 54.462299 268.457 3
98.589104 58.414398 269.28201 3
96.943497 54.231899 269.448 3
103.52 52.460098 268.40201 3
105.813 53.365398 267.37701 3
100.267 59.553001 268.24701 3
105.829 49.7561 267.793 3
99.6147 58.150398 268.61301 3
103.109 54.393902 267.81699 3
97.548599 53.366699 270.00601 3
95.7174 52.610802 270.448 3
108.76 50.7598 267.194 3
98.489304 56.530701 269.28101 3
95.563202 55.7603 269.46799 3
96.385101 56.497898 269.44501 3
90.734001 50.830101 270.987 3
99.751099 56.676399 268.41901 3
107.45 53.275501 267.039 3
101.11 53.1996 268.487 3
91.501404 52.857601 270.66501 3
101.855 52.102798 268.73001 3
104.397 52.802502 268.42001 3
89.879601 55.326801 270.20401 3
99.125099 50.7346 270.05099 3
99.891098 58.976799 268.44901 3
92.530403 55.717098 269.23901 3
96.8321 55.498001 268.995 3
105.428 50.4328 268.14499 3
100.598 54.787601 268.091 3
95.388496 51.386398 270.237 3
105.783 50.913101 267.69699 3
93.9048 52.586899 270.327 3
90.436203 53.219002 271.01001 3
102.493 56.147202 267.95901 3
94.286003 53.202 270.362 3
91.581802 56.5163 269.83499 3
107.685 49.606701 267.42899 3
102.77 53.7052 268.23001 3
101.795 50.014 268.96201 3
95.347099 54.074699 269.91501 3
94.360497 52.088299 270.55899 3
94.854401 50.443901 270.56201 3
95.338097 52.0131 270.47699 3
90.740303 53.833698 270.186 3
98.363602 54.804298 269.17099 3
91.438599 53.638401 270.17899 3
104.503 51.2369 268.65701 3
93.201698 57.098301 269.32101 3
99.235901 57.942299 269.14801 3
99.016998 52.218102 269.84 3
99.3517 50.001499 270.01501 3
91.998299 54.908901 269.771 3
95.354401 53.201599 270.517 3
101.671 57.188301 267.686 3
96.3983 50.550999 270.37701 3
98.007797 52.0429 270.10599 3
91.665901 50.902199 270.638 3
92.516098 51.004501 270.25101 3
98.756401 53.9799 269.173 3
93.129402 53.248798 270.09799 3
103.832 50.596199 268.84399 3
103.405 53.489601 268.29501 3
99.6306 55.098 268.55499 3
90.4646 56.0373 270.172 3
105.29 54.9706 267.46701 3
99.7724 50.5182 269.53601 3
99.738297 52.088799 269.388 3
90.050499 54.6455 270.32599 3
93.930099 51.131901 270.349 3
102.507 50.337002 268.89001 3
107.95 52.261299 267.25601 3
98.143303 55.479401 269.22198 3
99.245796 57.045898 269.04999 3
99.846199 52.823101 269.009 3
100.066 51.5079 269.04401 3
96.936203 57.002998 269.45599 3
101.866 54.196602 268.04501 3
96.757004 50.940498 269.89001 3
105.797 52.204899 267.58401 3
96.252502 49.812599 270.31699 3
104.713 50.015499 268.784 3
90.414497 51.515301 270.87201 3
103.11 49.669102 268.96201 3
101.68 51.424999 268.55701 3
105.723 55.2943 266.88699 3
92.673401 54.211899 269.651 3
91.237099 55.636398 269.82401 3
107.259 50.101002 267.40601 3
100.978 50.431301 268.758 3
96.135597 53.8288 269.98001 3
101.833 56.522202 267.84698 3
100.475 56.4702 267.88 3
101.517 42.364201 272.12601 3
95.394402 42.6423 273.71301 3
94.072304 44.494999 273.039 3
96.386497 46.256599 272.129 3
92.805 45.342602 272.461 3
92.678299 48.8498 270.80801 3
92.123199 42.943901 274.02301 3
102.487 40.821999 271.319 3
99.827202 49.425301 269.651 3
99.814697 48.565201 270.07999 3
101.602 43.2201 271.67401 3
100.821 48.180099 269.98999 3
93.0186 41.124802 275.814 3
90.975197 47.780701 271.97101 3
102.272 47.253399 270.021 3
100.825 46.973598 270.22198 3
95.752098 47.371399 272.323 3
100.373 43.524799 272.36099 3
92.397102 44.3881 273.25299 3
94.932198 46.047699 272.26099 3
94.010597 40.865101 275.76999 3
93.334198 44.770199 272.621 3
102.993 47.840099 269.61899 3
100.476 46.614799 270.81 3
92.207298 43.690399 273.487 3
102.56 48.500301 269.02899 3
102.875 46.611198 270.125 3
103.853 47.9916 269.38 3
94.283501 41.340401 275.31201 3
96.542099 45.6008 272.18301 3
93.003098 46.5252 272.13501 3
96.343597 48.644699 270.647 3
100.709 48.591499 269.33801 3
95.837196 44.0266 273.034 3
96.146202 47.933201 270.85101 3
98.867996 45.506699 272.19299 3
95.827202 46.663799 272.242 3
94.611397 45.449902 272.04001 3
93.839897 41.649502 274.90799 3
96.971199 42.474899 274.47101 3
94.196297 47.284801 271.51901 3
96.9524 49.1222 270.54501 3
91.618301 46.594101 272.55399 3
96.675102 47.768101 271.49799 3
94.162201 46.711498 272.03299 3
95.091202 48.712898 270.922 3
94.725601 44.428902 272.77802 3
99.306396 49.2048 270.19 3
92.806702 42.804798 274.022 3
100.059 46.192799 271.405 3
97.181 39.3531 276.00699 3
100.145 39.2827 275.064 3
101.895 40.069901 272.67899 3
96.838097 39.9632 275.48401 3
92.094803 47.256901 272.13101 3
104.006 46.779598 269.66199 3
100.821 44.6287 271.35199 3
98.026802 43.692299 272.95001 3
96.935402 45.1637 272.65302 3
97.724403 46.211399 272.01001 3
101.675 45.7216 270.633 3
103.49 42.304699 271.013 3
92.833 47.130199 271.883 3
93.0457 41.821301 275.40302 3
95.6483 43.545601 273.59799 3
104.732 46.750999 270.07199 3
104.255 44.879501 270.83401 3
102.685 42.639599 271.46899 3
96.349602 44.8162 272.336 3
97.288902 43.2966 273.32599 3
93.0774 44.206902 273.14301 3
104.772 47.7318 269.29999 3
97.763397 46.9519 271.73599 3
95.258499 45.2822 272.396 3
93.341103 52.1553 270.15799 3
101.709 50.6422 268.76599 3
102.638 53.564098 267.60199 3
90.626701 55.323502 270.14899 3
107.771 50.746899 267.13901 3
95.534203 49.6343 270.41599 3
104.014 56.847599 267.883 3
98.814499 49.618801 270.228 3
91.395798 45.2066 273.142 3
92.322899 50.2743 270.43701 3
100.319 57.5186 268.16199 3
106.724 54.010601 266.62 3
94.776703 58.2887 269.84201 3
97.439301 55.1339 269.36899 3
98.697899 57.500099 269.37601 3
96.5821 53.2127 269.97299 3
102.993 55.603199 267.86499 3
99.736504 53.696602 268.85501 3
100.238 55.428799 268.18399 3
101.194 49.298698 268.965 3
100.669 58.700901 268.31799 3
97.150299 58.472801 269.436 3
97.4291 56.3535 269.108 3
93.794403 56.705101 269.509 3
102.833 58.804501 267.94 3
104.111 54.976898 267.78699 3
105.42 54.213902 267.30399 3
106.164 51.517101 267.578 3
108.664 52.589699 267.134 3
104.33 51.990898 268.45999 3
93.397003 53.7724 269.595 3
103.846 49.829399 268.95599 3
95.017799 56.856899 269.836 3
100.265 52.25 268.82401 3
98.559402 51.161701 270.129 3
105.284 49.273201 268.526 3
105.346 52.6502 267.978 3
102.67 57.624401 267.47601 3
102.391 49.258598 268.883 3
95.770798 54.7999 269.69601 3
101.242 53.835899 268.21899 3
90.639999 49.8027 270.992 3
99.170799 59.142899 269.02701 3
97.234901 49.383801 269.90701 3
89.717598 56.6936 270.32599 3
91.353401 51.601799 270.617 3
98.676498 48.947498 270.35699 3
98.640503 48.0313 270.48001 3
98.116096 44.616199 272.64401 3
103.261 44.452202 270.939 3
99.318604 43.928101 272.70499 3
105.761 46.811199 269.27802 3
103.578 43.691299 271.073 3
104.709 45.348301 270.63 3
106.96 52.543598 267.44101 3
96.351196 51.487 270.22 3
93.820602 55.134899 269.418 3
101.19 56.112301 267.83401 3
102.673 51.855499 268.39001 3
90.0877 53.8209 270.42801 3
91.925797 55.9576 269.54199 3
94.736603 52.633099 270.44501 3
101.198 59.617802 267.73599 3
93.261299 57.797501 269.228 3
104.925 50.705898 268.58401 3
96.409302 57.4977 269.29599 3
99.361702 55.809898 268.888 3
104.151 53.3899 268.10101 3
107.046 49.3955 267.59399 3
105.415 55.897099 267.33801 3
94.124199 50.359901 270.65201 3
98.444901 52.6021 269.82101 3
92.246902 53.256302 270.31201 3
100.207 50.793701 268.94101 3
103.227 39.460899 272.72299 3
103.847 41.034199 270.371 3
109.611 48.0019 267.198 3
107.946 42.049198 269.35001 3
107.849 44.927101 268.91299 3
106.575 33.1646 275.056 3
111.87 45.127899 267.59399 3
108.122 34.814899 273.79901 3
112.228 63.696301 265.19601 3
106.654 36.684502 272.95901 3
107.434 48.2103 268.017 3
103.672 36.005901 274.198 3
109.258 46.382702 268.02499 3
107.288 38.2043 270.75299 3
103.679 34.190498 275.936 3
105.299 40.019001 270.495 3
101.82 38.481899 273.17899 3
105.462 44.9944 270.34201 3
108.662 45.7584 268.823 3
104.811 44.0019 271.00201 3
110.696 46.389 268.09 3
111.205 44.563301 268.46899 3
106.96 34.388 274.939 3
107.742 36.672199 271.47198 3
104.083 33.110298 276.57199 3
102.763 35.723801 275.10999 3
106.126 41.406799 269.82901 3
105.944 38.696602 271.091 3
102.637 37.1115 273.918 3
109.964 45.311401 268.685 3
105.101 36.938999 273.23599 3
106.449 37.281601 271.69199 3
106.657 39.446602 270.19601 3
105.328 33.998501 275.25 3
104.008 39.6661 271.23801 3
103.724 37.1838 273.073 3
107.977 47.081299 268.52301 3
100.107 61.455399 267.90399 3
91.275597 62.017601 269.67099 3
91.095802 61.060501 269.763 3
92.478996 61.793499 269.19299 3
99.847603 66.744202 269.91 3
93.758003 66.795403 271.12799 3
99.021599 61.133301 268.90701 3
96.011101 58.8325 269.87799 3
106.969 43.566799 269.875 3
90.520798 58.708099 270.29901 3
98.642601 63.672199 269.353 3
96.479797 65.263802 270.284 3
96.885002 66.233002 270.76199 3
96.567596 63.617298 269.32999 3
89.627197 57.1581 269.939 3
90.311203 64.169197 270.39099 3
94.642197 64.193802 269.96301 3
97.937302 59.556499 269.35001 3
102.54 40.413502 271.41299 3
105.75 34.952 273.92899 3
111.459 47.0938 267.46201 3
104.962 37.8675 272.16599 3
106.374 46.466702 269.095 3
107.679 40.1618 269.37201 3
101.626 36.627201 275.08499 3
104.253 42.9492 271.08401 3
91.142998 57.644901 269.85101 3
95.678001 61.299801 269.33099 3
98.679703 59.996399 268.862 3
96.029503 67.767197 270.897 3
98.478699 66.312302 270.49399 3
92.756203 64.375298 269.73001 3
97.973602 64.232697 269.43399 3
94.745399 65.219704 270.66101 3
97.419197 61.414501 269.26999 3
97.301697 67.464401 270.84299 3
89.533798 62.376801 270.30899 3
104.73 32.853901 276.151 3
104.513 39.920101 270.67401 3
105.818 36.5616 273.327 3
106.455 43.0033 270.13699 3
105.269 38.417702 271.439 3
106.514 38.072201 271.004 3
108.444 46.459702 268.18701 3
107.558 44.069901 269.564 3
105.097 41.757301 270.237 3
105.058 34.997799 274.39899 3
101.649 37.183701 274.45901 3
106.902 40.154301 269.69901 3
105.905 35.7644 273.39899 3
106.032 45.778198 269.452 3
105.892 39.3783 270.58401 3
106.985 44.947201 269.224 3
111.844 45.946701 267.354 3
104.264 36.690399 273.48099 3
106.526 40.8311 269.582 3
107.03 41.741699 269.552 3
104.26 33.739498 276.07001 3
107.933 37.667099 270.754 3
111.379 46.091801 267.923 3
104.796 39.166599 271.198 3
106.62 38.8391 270.647 3
107.324 38.805599 270.29001 3
105.718 40.507999 270.035 3
107.221 34.893002 274.41599 3
109.926 45.946899 268.23901 3
107.174 33.626499 274.862 3
106.765 36.016899 273.349 3
102.51 38.1273 273.04199 3
104.378 35.963299 273.84 3
102.574 36.318802 274.629 3
105.581 34.443901 274.60101 3
103.112 37.6203 273.31201 3
103.555 40.246799 271.034 3
101.59 37.825298 273.84601 3
103.258 34.9646 275.53 3
106.942 45.712299 268.85199 3
105.2 42.889599 270.82101 3
106.662 42.2216 269.98499 3
104.224 34.582401 275.189 3
104.531 38.6605 271.68701 3
107.922 35.8325 272.935 3
107.792 39.379299 269.69601 3
105.082 35.9417 273.487 3
105.811 37.175701 272.505 3
110.586 47.6562 267.505 3
103.696 38.531898 272.73801 3
107.298 35.500801 273.67499 3
109.243 47.504299 268.104 3
108.301 48.882702 267.603 3
105.723 43.886398 270.36301 3
105.686 32.973801 275.53101 3
105.87 42.307499 270.306 3
105.003 33.570999 275.93301 3
102.454 39.052502 272.733 3
103.179 39.783901 271.909 3
104.345 42.1278 270.50601 3
109.962 46.911598 268.01001 3
107.856 46.051998 268.599 3
104.711 40.962299 270.07101 3
106.493 44.375099 269.672 3
107.113 47.3517 268.431 3
104.435 38.0257 272.90601 3
106.556 35.351398 274.18799 3
104.222 35.365101 274.54999 3
109.307 44.585602 268.91901 3
108.301 47.767601 267.99701 3
109.247 48.848598 267.29901 3
107.758 34.100399 274.53699 3
107.961 42.965 269.565 3
110.946 45.5401 268.284 3
135.464 63.811699 258.008 3
133.416 65.717201 258.80801 3
135.778 64.5905 258.134 3
132.08701 61.190102 258.31299 3
133.19701 64.295898 258.61301 3
133.952 61.138599 257.81699 3
131.92 63.898102 258.85901 3
134.79201 65.840698 258.577 3
91.550697 59.393299 270.035 3
134.556 64.388298 258.314 3
131.909 64.881302 259.01501 3
128.209 65.941002 260.18701 3
126.64 63.3535 260.35699 3
126.443 65.816299 260.867 3
130.14 63.072601 259.237 3
126.972 61.660801 259.95901 3
135.004 62.345299 257.80701 3
130.418 65.507896 259.19901 3
89.540001 57.247898 269.017 3
88.824402 65.586899 270.28601 3
94.542297 58.3615 269.862 3
89.377899 60.315601 269.89801 3
97.677299 63.358799 269.37399 3
91.6912 61.3769 269.18701 3
99.169403 65.975098 270.07599 3
92.2425 65.0466 270.022 3
91.437599 58.4557 270.035 3
100.759 64.263397 268.091 3
97.590599 68.670197 271.14099 3
89.440399 56.984901 266.5 3
94.985497 60.951 269.66 3
89.120102 62.994202 269.92899 3
95.576897 65.1698 270.42099 3
99.480202 60.0457 268.52499 3
89.668404 67.804398 271.71399 3
101.363 68.078003 269.34799 3
93.394798 67.803703 270.98401 3
135.93401 60.876598 257.48801 3
126.609 64.949799 260.66 3
131.18401 62.2132 258.73999 3
131.37199 65.552803 259.25201 3
134.78999 63.325298 258.10101 3
127.755 61.157101 259.82999 3
127.606 63.985001 260.237 3
132.521 63.2201 258.55801 3
132.362 65.729103 259.09299 3
135.40401 65.266296 258.36401 3
129.595 65.308502 259.38901 3
132.978 61.4375 258.10699 3
126.516 62.464699 260.27499 3
136.23 62.269001 257.629 3
129.84599 62.204399 259.13 3
132.96001 65.063499 258.76901 3
127.415 66.0849 260.64401 3
131.035 60.631199 258.409 3
128.828 65.333801 259.953 3
132.076 61.9939 258.42999 3
130.291 61.404099 258.79599 3
134.938 61.418301 257.70099 3
133.875 63.757599 258.341 3
127.957 64.970497 260.27499 3
128.694 60.9524 259.349 3
131.244 63.375099 258.90799 3
134.103 61.963699 257.94901 3
125.777 61.552601 260.23199 3
133.49699 62.807999 258.23199 3
129.75 64.188103 259.535 3
134.10001 65.112999 258.54501 3
128.71899 64.0802 259.89499 3
125.963 60.5196 260.086 3
136.151 63.472198 257.82999 3
128.80701 62.679901 259.57001 3
131.01401 64.367599 259.17599 3
127.71 62.213699 259.87399 3
90.124702 63.209 270.40201 3
96.912102 62.513199 269.246 3
99.890602 64.415604 268.76801 3
95.981598 64.410004 269.745 3
94.708603 66.684303 271.21701 3
92.105202 57.5019 269.427 3
94.9729 59.365799 270.01401 3
99.233498 67.314499 270.54901 3
96.783203 59.2729 269.707 3
92.211197 60.4156 269.45801 3
100.246 68.002197 269.76501 3
90.092003 59.408699 269.836 3
91.975403 62.559898 269.703 3
90.827698 67.718903 271.591 3
100.327 63.1628 268.03101 3
91.258797 64.413002 270.181 3
93.511002 64.694603 269.996 3
93.0662 62.984798 269.64899 3
95.289101 63.598701 269.59201 3
98.282898 65.569 270.082 3
94.088898 59.481701 269.66101 3
96.513199 67.067299 271.07001 3
90.144997 60.91 269.98001 3
96.759399 68.201202 270.89801 3
101.604 67.125298 269.24799 3
100.854 65.197304 268.423 3
92.3293 67.685997 271.03601 3
98.428398 62.689701 269.23901 3
95.1091 62.407799 269.49799 3
89.564697 65.6632 270.99701 3
95.981201 66.071404 270.845 3
98.110298 67.838203 270.772 3
91.667801 65.887001 270.73499 3
89.530602 58.261101 269.53699 3
98.816498 68.861099 271.10599 3
97.125603 64.337898 269.548 3
93.137901 59.187599 269.685 3
98.292503 61.6978 269.116 3
97.759804 66.7202 270.728 3
100.49 66.6511 269.29099 3
95.972504 62.946098 269.54401 3
90.583099 65.359703 270.79199 3
89.6446 58.604301 270.52399 3
97.378899 65.266197 270.004 3
99.503197 63.128502 268.92801 3
89.199501 61.660198 269.78299 3
93.302498 60.127701 269.379 3
96.675903 61.493099 268.81601 3
95.742302 66.771896 271.57901 3
91.174004 63.2085 270.16501 3
99.596001 68.363297 270.59399 3
91.520599 66.839401 271.233 3
100.719 62.089001 267.784 3
93.991798 63.5984 269.66699 3
93.820801 65.970596 270.77802 3
96.397697 60.458302 269.46701 3
89.525597 57.136398 267.76199 3
92.119202 63.801998 269.55801 3
92.607903 66.350899 270.664 3
97.9646 60.408699 269.034 3
95.103798 67.7752 270.974 3
99.985603 65.409302 269.177 3
92.091103 59.3382 269.20901 3
92.9188 58.243999 269.375 3
89.396896 64.230301 270.526 3
99.6147 61.7276 268.58401 3
93.345901 61.573101 269.22101 3
88.853302 66.9589 270.85501 3
100.753 60.377899 267.87701 3
90.402496 61.900902 269.978 3
90.979698 60.086601 269.677 3
98.868698 64.553101 269.46399 3
90.484299 57.162601 270.28 3
90.111 66.514297 271.42001 3
104.934 56.735001 267.82101 3
113.2 64.030899 264.543 3
102.279 68.039597 269.13699 3
120.766 56.6805 262.427 3
119.538 55.625 262.487 3
122.839 55.739101 262.01099 3
115.709 62.956799 264.11099 3
123.648 53.270599 260.41199 3
106.002 44.9165 269.76199 3
116.904 55.299198 263.694 3
115.632 58.3325 264.41699 3
123.45 55.288502 261.34399 3
120.041 59.2131 262.297 3
119.53 60.513699 261.54401 3
117.03 57.0849 263.866 3
116.182 59.960999 263.71201 3
118.632 59.152302 262.65399 3
116.736 52.748001 263.88501 3
109.196 66.853996 267.85901 3
105.592 61.8964 267.16199 3
104.891 66.770798 269.04199 3
114.04 58.473801 264.67899 3
109.386 62.672001 265.927 3
113.32 66.884102 265.89401 3
104.119 59.758499 267.284 3
112.557 53.532799 264.94699 3
111.734 57.3293 265.69 3
103.455 64.946297 267.91299 3
111.634 60.864498 265.40302 3
108.031 55.829899 266.23599 3
115.251 55.291801 264.45001 3
107.154 67.891502 267.922 3
108.058 59.5117 266.03699 3
101.53 61.900501 267.302 3
111.085 68.438004 267.70599 3
106.774 63.7701 266.24701 3
110.824 65.022903 266.56201 3
118.342 58.512402 263.00299 3
121.972 57.048698 262.39999 3
121.338 52.9804 262.11401 3
117.476 55.623501 263.05099 3
119.371 59.770901 262.202 3
115.453 61.696999 263.83899 3
115.58 56.2355 264.565 3
119.294 63.426601 262.27301 3
119.322 58.079201 262.65601 3
122.736 56.470001 262.12399 3
123.517 57.002102 261.42899 3
117.197 63.165501 263.74399 3
118.235 54.5984 262.52499 3
116.385 54.818001 264.09601 3
116.746 54.163502 263.617 3
119.898 65.290001 263.44 3
124.151 63.490898 260.95001 3
120.484 61.034698 261.91901 3
120.422 52.6301 262.465 3
117.042 59.3493 263.48001 3
121.101 59.8927 261.44 3
122.557 58.9688 261.957 3
118.125 60.295601 262.37601 3
118.925 64.158997 262.73099 3
119.615 53.386799 262.51199 3
119.302 62.617298 261.97601 3
123.408 52.597099 261.04199 3
123.244 54.2019 261.569 3
120.33 54.6129 262.215 3
117.949 52.7756 262.82001 3
121.726 53.730202 261.96399 3
117.481 60.555199 262.84399 3
116.201 55.698502 264.33701 3
121.136 62.4501 262.19199 3
122.28 55.270901 262.18799 3
123.75 55.214298 260.328 3
122.026 61.341099 261.96899 3
106.921 66.771896 267.755 3
111.208 61.897999 265.74301 3
110.195 67.087303 267.26099 3
113.172 59.209202 264.38699 3
109.879 64.468102 266.13 3
110.248 53.125099 266.80499 3
110.274 65.930099 267.117 3
108.138 66.578903 267.353 3
110.652 54.254398 265.96899 3
107.409 54.641602 266.48801 3
112.877 58.204201 265.01501 3
104.154 68.483803 269.48099 3
108.512 67.8293 267.46799 3
109.027 53.956299 266.15601 3
105.681 65.820503 268.37299 3
108.003 67.166496 268.55099 3
102.391 62.832901 267.58899 3
104.444 60.9006 267.07001 3
104.161 65.510803 268.444 3
112.374 66.496002 266.198 3
105.997 62.787102 266.733 3
105.405 60.310299 266.92599 3
111.689 53.835899 265.479 3
106.79 55.618599 266.51901 3
111.466 56.3251 265.93399 3
108.762 55.067799 266.04999 3
111.443 64.094498 265.95801 3
105.644 57.2337 267.13101 3
110.794 60.211601 265.64099 3
110.597 63.070499 265.966 3
112.104 52.6675 265.577 3
104.502 58.962101 267.92801 3
111.296 67.138901 267.31299 3
114.016 55.567402 264.53 3
109.1 65.979202 267.13699 3
106.363 64.7118 266.75601 3
102.942 59.5891 267.565 3
107.281 57.652302 266.44501 3
115.774 53.134499 264.29099 3
111.996 59.055302 265.267 3
109.422 60.577301 265.40799 3
103.789 61.9617 267.616 3
107.491 61.335701 265.888 3
109.994 56.048801 266.20801 3
107.893 53.510399 266.496 3
108.805 63.836601 265.81799 3
109.911 58.858398 266.24899 3
105.377 68.717102 269.40201 3
105.816 58.424099 266.95001 3
105.568 64.671898 267.84299 3
111.656 62.989498 265.71201 3
101.671 65.975998 268.811 3
112.9 55.9683 264.43399 3
113.801 60.651199 264.17999 3
107.632 65.405197 266.84299 3
109.199 57.1273 266.10901 3
106.637 62.383301 265.98801 3
106.025 67.281097 268.47501 3
113.875 56.976299 264.31 3
109.683 68.285004 267.72101 3
111.629 66.188797 266.875 3
112.247 67.639999 266.517 3
111.922 55.197399 265.207 3
102.684 60.6366 267.56 3
103.666 63.440701 267.79501 3
103.124 66.367798 268.93799 3
112.544 65.527 265.73199 3
105.992 56.288502 266.73599 3
103.459 58.361801 267.67599 3
112.93 61.989498 264.228 3
113.863 54.466 264.45401 3
106.223 59.9025 266.38501 3
102.033 64.170898 267.66299 3
114.068 52.624199 264.884 3
119.5 64.580704 263.09399 3
120.553 53.333599 262.12601 3
114.635 67.448601 265.505 3
114.165 64.109596 264.26001 3
123.362 56.098499 261.57101 3
116.135 62.345402 264.06 3
119.598 57.123699 262.53201 3
116.378 56.514999 264.38199 3
114.6 61.226601 263.58401 3
115.898 65.522202 265.103 3
116.835 60.382599 263.63 3
125.643 63.696201 260.58499 3
121.435 60.680599 261.90201 3
120.027 63.182301 261.87701 3
117.713 57.932899 263.16101 3
122.246 54.427101 262.13199 3
123.592 67.119003 263.12 3
117.258 52.680199 263.25299 3
118.917 66.849701 263.86301 3
118.064 56.008598 262.55099 3
121.187 65.691704 263.31 3
123.308 65.611801 262.771 3
121.916 62.1409 262.07599 3
123.584 62.452202 261.41101 3
124.656 64.803703 261.13199 3
123.867 57.645699 260.492 3
117.778 65.829697 264.17801 3
120.611 55.552799 262.44299 3
119.407 58.856602 262.539 3
118.903 52.985298 262.668 3
123.568 54.483101 260.83401 3
122.204 52.573601 262.10501 3
117.725 62.4828 262.78601 3
114.532 60.009201 264.07999 3
123.314 59.252499 261.46899 3
117.322 54.654099 263.095 3
120.933 59.094299 261.522 3
107.31 37.6021 271.08099 3
108.799 48.406101 267.61801 3
105.965 36.511799 272.62799 3
109.28 45.4501 268.73199 3
107.12 37.112499 271.586 3
105.781 37.531399 271.901 3
106.947 36.723598 272.319 3
107.891 38.3899 270.35599 3
115.641 54.362499 264.008 3
110.422 48.2995 267.25101 3
102.317 37.681499 273.564 3
104.708 37.377701 272.76999 3
103.48 35.549702 274.72299 3
107.283 42.552101 269.819 3
107.45 46.702702 268.84601 3
106.442 34.561199 274.45401 3
106.445 34.070801 275.354 3
107.73 36.415001 272.41599 3
123.741 52.542801 260.25601 3
122.605 64.317802 262.32501 3
113.989 61.771801 263.93799 3
117.189 67.779999 265.36801 3
122.061 57.9049 262.31799 3
117.453 63.999599 263.76599 3
114.875 58.238899 264.45801 3
123.832 60.953899 260.97198 3
103.962 39.156399 271.694 3
120.17 66.780602 263.28299 3
118.839 60.4338 262.048 3
113.563 65.744102 265.31201 3
125.759 66.208801 261.13901 3
109.478 50.355801 267.19299 3
107.658 40.7444 269.03299 3
106.187 32.612999 275.06699 3
107.949 35.328701 273.38501 3
109.939 47.519501 267.65701 3
119.027 54.9188 262.341 3
118.635 65.927597 263.66299 3
122.9 60.132599 261.634 3
118.625 57.110001 262.70401 3
116.506 64.875504 264.65302 3
117.019 58.356499 263.89099 3
119.009 56.260601 262.319 3
123.383 58.251499 261.535 3
119.985 62.228199 262.20499 3
123.686 63.8895 261.59 3
124.481 65.7882 261.35501 3
115.367 60.4697 263.681 3
121.042 61.6147 262.246 3
124.003 56.714001 260.056 3
117.48 56.921501 263.185 3
117.002 56.0541 263.69 3
120.696 57.408001 262.28 3
114.868 62.347599 263.88699 3
118.31 63.199699 262.35699 3
121.49 58.5984 262.40799 3
117.446 64.984703 264.185 3
122.402 62.9072 261.992 3
114.765 59.120201 264.16199 3
117.571 58.852699 263.16 3
123.69 55.977699 260.702 3
121.467 55.068501 262.31201 3
115.533 59.2854 263.68701 3
113.793 64.921097 264.82599 3
118.503 61.268299 261.73499 3
118.9 53.927898 262.57101 3
115.705 57.237598 264.35699 3
113.744 62.686699 263.79999 3
123.017 54.929501 261.86099 3
115.294 66.693001 265.32001 3
117.956 63.958401 262.93701 3
116.271 66.368401 265.39401 3
120.55 66.211899 263.97101 3
119.963 56.2374 262.521 3
121.477 56.348 262.40302 3
124.094 66.643898 262.16199 3
125.077 62.644299 260.599 3
120.389 60.240299 261.479 3
117.191 61.659801 263.508 3
120.587 58.422798 262.48999 3
123.007 53.417198 261.70999 3
115.816 67.762497 265.668 3
120.869 63.795101 262.02701 3
118.17 64.860397 263.21799 3
121.433 66.922997 263.35999 3
117.533 59.731899 262.80399 3
118.626 62.185902 261.936 3
117.762 61.233501 262.453 3
122.864 61.220699 261.81201 3
116.43 59.1716 263.95599 3
116.207 63.685799 264.15201 3
117.792 67.066902 264.32199 3
117.516 53.631001 262.87701 3
116.599 57.552299 264.31 3
121.093 54.248001 262.04099 3
123.862 59.827499 260.759 3
122.71 67.4263 263.638 3
117.229 66.344498 264.953 3
116.177 61.227402 263.78601 3
122.888 57.3097 261.95001 3
114.184 66.2976 266.13501 3
124.499 61.705101 260.55899 3
119.736 54.061501 262.09601 3
122.259 65.179298 262.93201 3
114.806 65.862396 265.31201 3
119.603 61.227001 261.82101 3
116.404 53.506302 264.086 3
123.84 64.993896 261.95801 3
122.014 59.471001 261.66 3
122.408 66.303299 263.306 3
114.992 63.5951 263.78101 3
