# .PCD v0.7 - Point Cloud Data file format
VERSION 0.7
FIELDS x y z label
SIZE 4 4 4 4
TYPE F F F U
COUNT 1 1 1 1
WIDTH 1646
HEIGHT 1
VIEWPOINT 0 0 0 1 0 0 0
POINTS 1646
DATA ascii
205.871 50.612999 248.92 5
210.481 40.4547 249.314 5
207.26199 39.334301 256.58499 5
205.804 43.851002 248.57001 5
207.638 50.147499 247.382 5
203.57001 40.120399 258.86801 5
204.549 45.4697 251.799 5
206.34801 52.191601 248.39 5
210.40401 36.7775 257.216 5
211.392 45.9949 244.355 5
209.957 36.480499 253.936 5
209.633 37.624001 252.71201 5
206.261 46.270802 246.85899 5
205.59 47.871498 249.43201 5
207.74001 38.210999 255.33 5
202.933 42.0839 256.04901 5
209.19901 47.942101 246.327 5
209.52499 36.821499 255.287 5
192.60699 40.1745 258.02701 5
189.131 39.5821 262.457 5
186.01801 41.5937 258.552 5
197.79401 41.500301 259.57001 5
187.65199 40.9133 261.85001 5
190.14101 38.648499 262.01501 5
181.741 41.791302 265.177 5
181.25 45.108898 262.931 5
193.629 38.016701 264.892 5
186.058 40.804798 264.32199 5
198.92599 41.465 259.535 5
194.851 40.389 259.84698 5
187.48599 40.919102 259.01001 5
197.821 42.1726 258.26999 5
185.655 42.775101 258.173 5
189.21201 41.0574 257.561 5
193.302 45.3675 254.194 5
185.13901 41.280602 260.461 5
194.145 40.920502 258.327 5
192.312 39.839802 262.673 5
192.646 41.896801 256.49799 5
186.737 40.611401 261.323 5
190.214 42.7365 256.27499 5
195.239 38.209202 263.52301 5
201.27499 36.955898 263.992 5
189.481 46.3395 254.422 5
184.202 42.264801 259.577 5
201.021 39.2411 261.452 5
184.86301 40.884602 262.26901 5
183.953 40.316002 264.70801 5
179.608 45.945801 263.55801 5
185.32401 40.317699 263.09201 5
188.88699 44.8041 256.198 5
182.438 41.970402 262.599 5
192.23399 39.719398 261.70901 5
182.408 45.384998 259.43701 5
191.772 39.481899 264.62201 5
188.349 46.094398 254.98199 5
181.229 45.683701 260.84799 5
195.431 37.690899 264.974 5
185.505 41.4552 259.52301 5
187.601 41.7659 264.36801 5
192.52901 43.071201 256.34698 5
184.298 40.765598 263.09201 5
199.862 41.375198 259.89301 5
196.806 41.2076 261.08701 5
182.528 41.606602 263.504 5
198.14 39.090099 263.15399 5
196.155 43.138199 256.71899 5
193.854 39.720699 259.70599 5
183.56 40.758598 263.86301 5
189.222 42.993401 256.396 5
191.433 41.0658 256.698 5
185.306 40.3615 264.87799 5
187.645 40.819099 264.97101 5
184.26601 41.4823 260.992 5
198.03799 41.092499 260.63501 5
182.177 42.7052 263.20901 5
202.21001 37.801498 262.42899 5
197.061 39.568901 262.509 5
189.81 38.609798 263.01999 5
181.04601 43.8633 264.38199 5
198.32201 38.442402 264.10101 5
188.188 40.541199 259.78 5
177.53 46.917702 264.94501 5
189.541 39.382198 261.49301 5
191.996 45.620499 254.108 5
193.57201 41.743099 257.13101 5
189.85201 40.370602 258.453 5
181.105 43.0756 265.26999 5
193.94901 38.594299 262.98401 5
186.185 40.718899 262.91 5
195.89799 40.221901 261.55899 5
178.57899 44.6581 266.11499 5
202.513 37.004902 263.04501 5
196.83 37.923599 264.68301 5
190.269 40.931599 257.11899 5
189.24899 45.306 255.44501 5
178.43201 46.658001 264.15399 5
190.866 38.701099 262.99701 5
196.265 42.533901 257.685 5
185.091 42.040901 258.84601 5
183.287 45.476398 258.32199 5
193.033 39.2971 261.26501 5
190.058 39.875599 260.21399 5
189.811 44.034401 256.22699 5
181.87601 42.378502 264.16101 5
180.43401 45.866402 261.414 5
195.25301 38.732899 262.20599 5
198.87801 41.960499 258.54599 5
186.472 41.057999 259.604 5
192.27499 40.6632 257.14401 5
183.07001 44.8582 260.923 5
186.35699 46.298401 255.53999 5
199.302 38.528198 263.336 5
185.15601 43.428501 258.509 5
194.75 44.1735 255.425 5
188.53799 40.5327 262.42599 5
187.578 45.4142 255.75999 5
195.745 41.8083 258.99301 5
194.134 38.930401 261.73099 5
200.32401 41.817101 258.73599 5
193.213 44.387699 255.392 5
187.05299 41.575802 258.00601 5
192.52699 39.676399 260.12701 5
183.127 43.419102 260.854 5
188.175 40.612099 264.10001 5
184.94501 44.6982 258.608 5
189.521 38.872799 264.353 5
190.742 45.140099 255.09399 5
198.354 39.7318 262.405 5
182.914 42.0252 261.75299 5
195.17799 43.246601 256.45099 5
196.01601 41.0364 260.48401 5
191.838 43.7854 256.29199 5
187.19501 43.697601 257.22699 5
201.33099 38.403 262.33701 5
188.16 39.3204 264.84698 5
181.66499 45.1954 261.582 5
200.306 40.3904 260.495 5
187.90601 42.403 256.95401 5
199.84801 37.453999 264.495 5
192.433 38.8936 265.034 5
185.633 45.5149 256.491 5
185.995 40.9972 265.40201 5
179.59399 44.879601 264.80499 5
177.367 45.564201 266.293 5
187.08299 46.023602 255.341 5
183.713 42.745701 259.992 5
199.558 41.6647 258.935 5
190.94901 40.336399 258.108 5
190.87601 39.714401 260.27802 5
179.153 45.963699 264.22699 5
200.08099 38.307899 263.26801 5
200.616 39.8325 261.07001 5
184.44099 41.663601 260.21301 5
186.20799 45.070499 256.87399 5
193.569 40.499199 257.91901 5
194.108 42.315701 257.38 5
180.265 44.420399 264.673 5
197.366 41.944599 258.918 5
198.901 39.676601 261.616 5
194.006 44.087101 255.896 5
195.40601 39.553299 261.479 5
187.92799 43.292702 256.82599 5
202.097 38.644501 262.108 5
190.808 39.403801 262.40302 5
196.571 43.583698 256.146 5
189.756 44.795601 255.881 5
199.092 37.875702 264.33899 5
191.791 39.836601 263.332 5
202.095 39.923199 259.86499 5
191.39799 39.8797 259.59799 5
187.265 45.105598 256.629 5
199.73599 38.752102 262.62299 5
188.033 41.57 257.034 5
197.89 40.139702 261.65701 5
186.19901 40.560398 261.94501 5
189.31 39.0858 263.384 5
182.01401 44.905701 262.258 5
182.002 43.570301 263.28 5
202.90401 37.463001 262.392 5
193.101 38.702 263.35999 5
194.52 43.490799 256.12399 5
197.328 42.416599 257.72 5
198.3 41.819901 259.048 5
177.923 45.0853 266.03299 5
182.02499 45.188499 260.89001 5
191.10699 38.6572 264.013 5
190.55299 40.248402 258.90302 5
184.90401 41.135899 261.29999 5
197.573 41.145901 261.431 5
186.688 41.222099 258.715 5
188.054 41.402699 263.80399 5
196.56799 40.684601 261.733 5
182.562 45.664902 258.55701 5
188.869 40.121601 261.76401 5
196.186 37.903702 264.23401 5
192.793 40.0648 258.86401 5
193.82201 42.9543 256.84698 5
185.36099 45.1101 257.77802 5
177.44099 45.9911 265.63101 5
182.95 42.9132 261.436 5
184.075 41.092201 262.297 5
189.16701 40.5877 258.78699 5
182.498 42.7327 262.38599 5
183.481 45.7113 257.58801 5
179.786 45.936199 262.78299 5
190.38499 39.532299 261.564 5
201.54601 36.874699 264.80099 5
195.58299 41.4547 259.81699 5
187.616 39.964901 264.535 5
183.396 45.0093 260.09799 5
197.228 43.094799 256.52899 5
183.362 45.151501 259.16 5
186.06 43.398602 257.79001 5
197.325 38.5536 264.04099 5
191.601 45.427101 254.925 5
193.78999 39.347198 260.58801 5
195.295 44.5191 254.78101 5
189.81799 40.328602 259.36499 5
176.84399 46.901199 265.685 5
190.64 43.654499 256.129 5
180.306 45.432999 263.255 5
190.992 44.537701 255.755 5
187.25101 41.959499 257.27399 5
194.563 43.009201 257.10699 5
192.939 38.691399 264.117 5
188.548 43.814499 256.62799 5
186.806 44.544601 257.34698 5
194.035 44.496899 254.90601 5
180.597 45.551399 262.293 5
193.879 38.4025 264.06299 5
186.75999 45.625198 256.19501 5
189.015 40.259998 260.15601 5
186.272 40.965 260.53299 5
184.099 44.624599 259.55701 5
186.70399 41.153801 263.70801 5
187.099 40.589401 260.159 5
196.052 38.578201 263.16901 5
183.802 43.588001 260.11401 5
194.811 41.4669 258.72501 5
179.252 44.3834 265.67099 5
195.446 42.7934 257.12299 5
195.478 40.423 260.741 5
187.233 42.819 257.28201 5
195.401 42.553299 258.263 5
200.563 38.5882 262.67899 5
190.16701 38.447601 263.92001 5
197.226 41.364799 260.34799 5
196.286 39.6618 262.12799 5
181.65601 43.3288 264.06799 5
189.19 40.0186 261.01401 5
199.043 39.247501 262.625 5
181.74699 44.2537 262.573 5
194.42799 40.5 259.03699 5
199.20599 37.290401 265.06699 5
191.403 39.7644 260.89001 5
182.646 41.125099 264.52701 5
182.60201 43.6721 261.745 5
192.84599 44.998901 254.868 5
181.476 44.262501 263.569 5
188.431 40.893501 263.29901 5
186.908 40.870499 262.33301 5
192.853 39.136799 262.74799 5
202.379 39.085899 260.90799 5
183.618 41.4804 261.78 5
179.99699 45.398899 264.14499 5
186.573 41.3535 264.82401 5
185.007 45.357601 257.10699 5
198.632 40.531399 261.08401 5
184.173 45.3423 258.336 5
198.48199 42.457401 257.73499 5
192.569 44.175499 255.952 5
187.72099 57.891998 249.58501 5
203.364 60.009899 249.765 5
197.117 47.6087 252.14301 5
195.457 54.647499 249.73399 5
200.071 52.577599 249.382 5
199.401 53.2449 249.397 5
189.644 47.8909 252.564 5
203.306 53.368599 249.677 5
196.931 57.116001 249.53999 5
199.993 57.420898 248.981 5
198.047 53.9384 250.282 5
188.453 60.453602 249.745 5
199.37 54.731201 249.131 5
188.806 47.417 253.08099 5
203.955 40.903099 257.41599 5
206.74899 55.802502 249.284 5
190.55901 56.955002 249.46899 5
193.226 50.373199 251.24899 5
205.39 54.707401 249.771 5
191.883 58.090801 249.472 5
205.161 60.162102 250.052 5
198.922 57.400398 249.241 5
191.29201 59.102901 249.431 5
196.66499 49.435799 251.52699 5
194.895 49.566399 251.328 5
193.416 52.233398 251.104 5
205.87 57.606499 249.765 5
204.127 56.7565 249.582 5
200.433 55.376999 249.157 5
188.304 63.917301 251.06599 5
202.005 56.460499 249.313 5
188.62 52.944401 250.97701 5
206.297 56.453602 249.677 5
193.332 55.073799 249.39999 5
198.58099 56.651699 249.416 5
201.828 52.185101 249.577 5
189.06599 48.560799 252.369 5
188.20799 50.304699 252.071 5
190.619 49.230499 251.757 5
192.89999 46.988201 252.34 5
192.161 50.936401 251.33299 5
198.849 52.770199 250.302 5
199.757 56.596901 249.011 5
193.11099 54.321701 249.909 5
189.668 50.588299 251.75301 5
189.616 60.656502 249.728 5
193.616 51.258999 251.216 5
194.759 50.525902 251.162 5
195.381 58.021702 249.356 5
198.649 49.513 251.56599 5
194.923 48.753799 251.623 5
193.48599 45.7486 253.435 5
188.632 56.513802 249.429 5
191.82201 46.891499 252.778 5
190.70399 51.897598 251.375 5
186.314 58.2906 249.698 5
193.72301 57.022301 249.338 5
193.18201 58.127201 249.41 5
199.116 50.173302 250.606 5
187.496 52.790901 250.8 5
200.125 51.673199 249.558 5
198.88499 51.6525 250.713 5
188.951 49.8536 251.964 5
193.09 61.982101 250.159 5
203.183 54.864899 249.589 5
197.914 51.380501 251.067 5
189.75301 55.6992 249.554 5
191.772 56.944901 249.42 5
187.002 61.3955 250.14301 5
192.26801 54.846001 249.459 5
206.75101 57.765701 249.379 5
203.198 52.217899 249.71201 5
200.959 54.3176 249.30901 5
192.283 47.5681 252.28999 5
199.23199 59.402901 249.343 5
190.97 55.844101 249.492 5
188.485 58.565899 249.513 5
187.634 59.591801 249.692 5
189.507 65.921799 252.284 5
190.46201 60.812901 249.756 5
187.905 56.948399 249.60899 5
202.944 62.352299 250.26801 5
191.326 63.361 250.77499 5
191.355 46.2411 253.978 5
189.96899 54.5798 249.73199 5
205.89101 55.515598 249.75999 5
196.209 59.1082 249.561 5
193.237 64.720497 251.685 5
202.213 57.569199 249.34801 5
193.664 46.1092 252.661 5
199.87801 60.813301 249.373 5
189.786 49.1973 251.94299 5
202.06599 59.7104 249.494 5
199.88699 64.325798 251.08099 5
193.34801 48.7887 251.526 5
190.748 53.5098 250.37601 5
197.629 52.523399 250.88499 5
193.089 56.418701 249.315 5
200.869 56.4249 249.16 5
196.513 48.407001 251.83299 5
201.086 52.748699 249.41499 5
194.927 45.9776 253.07201 5
193.388 59.3088 249.48399 5
187.63499 62.207001 250.394 5
191.32899 50.657001 251.34801 5
199.464 50.930599 249.987 5
188.785 62.366299 250.33501 5
196.19901 56.246899 249.317 5
191.597 49.370998 251.73599 5
192.40401 59.715401 249.649 5
205.269 58.889 249.80099 5
198.20799 54.946201 249.75999 5
202.911 56.717098 249.45 5
201.54601 55.1759 249.321 5
204.229 58.909302 249.696 5
197.939 57.193901 249.564 5
189.96201 59.869701 249.709 5
194.27299 58.298401 249.425 5
203.59599 55.851002 249.52699 5
189.75101 61.840199 250.121 5
196.349 53.302101 250.77901 5
189.644 56.7369 249.474 5
192.653 61.015999 249.83099 5
200.364 58.262901 249.093 5
191.036 47.351101 252.493 5
205.83701 62.2826 250.59599 5
187.01601 63.243301 250.81599 5
202.256 39.452 279.50601 5
202.308 40.271599 282.53299 5
204.709 40.570702 281.41501 5
197.644 39.600899 281.245 5
193.47301 39.066898 282.405 5
202.54201 37.059601 275.19299 5
190.933 38.313702 278.19699 5
194.662 37.982201 275.76199 5
198.30299 41.4174 284.728 5
198.089 38.624599 277.117 5
201.136 39.601601 280.71799 5
198.71001 40.271198 282.79999 5
202.95399 36.5695 272.34799 5
194.42 39.980301 283.87799 5
192.64999 53.264999 250.755 5
199.67799 37.603001 275.29599 5
192.944 38.551201 280.55301 5
195.496 38.4646 278.51801 5
202.28799 38.310101 276.86401 5
203.905 40.777302 283.061 5
192.817 38.127102 277.03299 5
199.535 39.126499 278.82101 5
200.28799 36.6726 272.10001 5
192.12801 40.044701 285.26801 5
203.855 39.722 279.62299 5
195.75 39.3088 281.50201 5
196.69701 37.527599 274.91699 5
200.603 41.244499 284.42599 5
205.05499 37.1563 274.38501 5
189.909 38.577301 280.26199 5
190.802 38.9436 282.828 5
203.843 36.5564 273.229 5
199.131 37.341301 273.96799 5
192.45 38.252899 278.23801 5
194.02499 38.433601 279.45999 5
191.33299 39.2836 283.94101 5
201.05499 38.608601 277.146 5
196.729 39.900002 282.30499 5
192.093 39.0261 282.88101 5
191.19901 38.520699 280.36899 5
197.155 38.250301 275.89401 5
198.972 38.047401 276.354 5
194.757 39.328201 282.38599 5
203.752 37.112499 274.53101 5
202.058 40.8867 283.70001 5
203.26401 39.255199 278.50101 5
195.841 40.163601 283.203 5
200.056 40.558998 283.18301 5
199.026 39.604698 281.043 5
200.827 39.2435 279.36099 5
193.06799 39.551701 284.00101 5
201.88901 39.103298 277.99301 5
198.254 37.6889 275.02802 5
201.26601 37.781601 275.21899 5
198.245 39.134399 279.54199 5
200.674 40.051601 282.05499 5
196.761 38.8069 279.22 5
201.894 36.793999 273.849 5
200.38901 37.294701 273.983 5
196.541 38.468899 277.314 5
194.974 38.735199 280.259 5
202.929 39.860298 280.89999 5
194.936 38.198101 277.09201 5
197.483 54.758701 249.85699 5
195.114 56.7957 249.375 5
194.35899 48.037899 251.823 5
197.50999 49.575901 251.33299 5
192.38499 46.347698 252.89799 5
198.784 53.455601 249.92799 5
196.116 55.1408 249.61 5
194.18401 49.0313 251.533 5
194.166 52.155899 250.922 5
194.996 53.380001 250.63901 5
189.444 52.077999 251.46201 5
201.077 53.551998 249.394 5
200.181 54.374401 249.192 5
191.603 48.109001 252.062 5
201.748 53.166801 249.535 5
192.621 52.333302 251.147 5
197.332 53.253799 250.77901 5
195.269 51.477501 250.974 5
189.36301 53.170898 250.705 5
196.015 51.180302 251.07899 5
195.33299 47.014 252.32201 5
190.54401 46.586498 253.39799 5
191.67101 51.558102 251.17799 5
193.98 53.777302 250.44 5
188.88901 54.398201 249.96201 5
192.905 48.1511 251.819 5
194.733 55.1772 249.396 5
203.159 58.292301 249.45599 5
192.668 49.382099 251.53101 5
192.31799 54.112999 250.035 5
187.937 55.995499 249.672 5
191.375 53.106998 250.89101 5
190.864 52.712898 251.17101 5
193.505 47.841099 251.993 5
187.66901 54.576801 249.922 5
199.272 52.615501 249.673 5
196.315 52.185902 250.97099 5
191.653 50.027302 251.498 5
206.287 54.728699 249.487 5
189.14799 46.6642 253.565 5
195.8 49.701099 251.315 5
188.13 53.492401 250.338 5
195.569 48.0028 251.8 5
187.00301 53.589298 250.34801 5
198.97 50.919399 250.689 5
198.789 55.985199 249.24699 5
193.088 53.571701 250.27499 5
202.011 54.589298 249.401 5
192.99699 46.301201 253.28799 5
197.022 51.118099 251.16499 5
196.972 56.114899 249.446 5
194.70599 54.5256 249.728 5
198.42799 52.191601 250.908 5
191.776 46.101002 253.323 5
194.40601 46.868301 252.50301 5
190.435 51.1413 251.48 5
194.916 56.036201 249.231 5
192.035 52.706001 251.00999 5
199.51801 49.614399 250.274 5
187.80499 51.846802 251.72701 5
196.883 52.576199 250.85001 5
196.063 54.2509 249.92799 5
193.957 50.543301 251.198 5
188.395 54.806198 249.59599 5
200.815 47.363098 251.105 5
195.40401 45.132401 253.983 5
200.209 48.898701 250.345 5
207.299 41.561199 249.802 5
203.97099 40.501999 258.26801 5
196.295 45.448399 253.647 5
205.629 46.194901 247.37801 5
205.755 40.861801 256.952 5
205.465 44.9967 249.07001 5
212.733 35.996399 256.67401 5
197.728 43.504501 255.735 5
206.25101 45.3647 246.894 5
201.44299 40.5746 258.992 5
208.095 37.922798 254.61301 5
201.36301 50.615398 249.877 5
205.47 45.747002 248.41299 5
206.2 41.152802 256.27802 5
204.28799 42.711102 254.38499 5
206.145 41.5308 254.66 5
206.502 44.285999 247.02699 5
209.564 37.5756 257.35599 5
203.51401 45.885101 251.987 5
206.924 39.3811 254.311 5
194.972 45.825401 252.76401 5
204.76401 40.642601 257.229 5
204.37399 47.7971 250.62199 5
204.00301 43.432499 253.836 5
205.84399 43.4865 249.45399 5
212.52499 36.222301 255.84 5
202.946 49.948601 250.131 5
201.612 49.172199 250.297 5
188.05 66.623901 252.80299 5
202.33 51.542801 249.786 5
199.235 42.573799 257.27701 5
207.76801 38.728901 256.58301 5
199.49001 44.1623 254.74899 5
208.42799 45.1376 246.259 5
199.961 43.376801 256.31799 5
200.04401 42.591999 257.245 5
208.16299 39.037102 258.46201 5
209.52 37.359402 254.231 5
206.526 40.691898 253.495 5
202.62 42.5079 255.507 5
200.729 48.3965 250.57001 5
201.12601 43.560101 254.918 5
199.936 45.543098 252.83501 5
198.41 45.368698 253.894 5
203.715 45.1409 251.85201 5
205.903 44.263 247.83099 5
206.511 40.873001 255.41299 5
206.843 40.655102 250.388 5
202.74001 41.599602 256.79901 5
203.62399 41.975899 255.71899 5
205.658 44.0807 250.32001 5
200.481 43.136902 255.062 5
205.90601 42.917801 251.573 5
205.62199 48.5686 249.084 5
198.034 44.138599 255.26801 5
205.517 46.427399 249.895 5
205.55 47.0895 249.33701 5
206.108 42.524799 250.02299 5
206.38499 42.229 247.569 5
204.77901 39.691799 258.465 5
213.07201 36.8904 252.985 5
201.933 45.966599 251.89101 5
205.481 42.34 254.849 5
201.002 43.543701 254.106 5
206.104 43.5084 247.729 5
206.295 42.551998 248.32201 5
207.213 46.206799 246.591 5
200.133 44.2668 253.752 5
204.69501 46.4132 251.694 5
204.35201 41.4202 256.54001 5
211.901 40.924599 249.465 5
212.299 38.2514 251.589 5
212.8 42.652901 248.472 5
206.037 51.569 249.08099 5
205.52499 44.9599 248.136 5
208.03999 38.233299 256.138 5
203.09801 40.5145 258.117 5
207.14101 38.9491 255.701 5
201.487 42.769699 255.467 5
212.217 53.077202 245.01801 5
206.60699 40.5741 252.63901 5
205.98399 42.673698 252.30701 5
202.718 46.483398 251.64799 5
203.66299 49.461201 250.21001 5
208.511 47.2481 246.46001 5
200.63 44.596401 252.98199 5
206.438 41.765099 249.17 5
204.51199 38.875 260.02499 5
206.67599 49.920399 247.517 5
205.87399 40.0546 257.974 5
212.368 43.0676 247.638 5
208.03101 44.138901 246.16901 5
206.42101 41.3801 251.22301 5
208.886 43.699699 246.424 5
210.967 44.6726 246.01601 5
197.29201 46.123299 253.05 5
205.908 47.172901 247.17 5
203.17999 46.959999 250.96899 5
201.692 41.707901 257.047 5
209.549 37.0093 256.17001 5
206.13901 42.1866 253.998 5
207.79601 38.270599 253.91701 5
203.478 41.403198 256.39499 5
206.948 40.182499 257.496 5
204.586 42.359402 255.091 5
196.409 44.801498 254.15401 5
202.58099 43.411499 254.44701 5
211.776 35.796902 256.16199 5
205.38901 41.209801 256.06201 5
213.53 36.306301 256.724 5
200.237 47.778599 250.73801 5
197.952 47.415501 252.485 5
197.338 44.054199 254.924 5
199.215 48.431099 251.60699 5
209.742 37.725399 253.62199 5
203.146 48.5783 250.401 5
207.19 38.7286 254.78999 5
203.828 39.523399 259.53299 5
201.981 49.9753 250.181 5
199.103 45.738499 253.436 5
211.963 37.1241 252.99899 5
195.718 45.890999 253.27 5
207.40601 39.5756 258.48099 5
203.487 50.615898 250.06599 5
195.79601 49.013302 251.485 5
204.248 59.912201 249.92101 5
202.909 65.386902 251.448 5
194.565 57.312401 249.321 5
191.14999 46.343899 252.83501 5
203.81599 64.133797 251.021 5
205.916 53.613499 249.718 5
188.099 52.352901 251.263 5
201.427 66.6539 251.94701 5
195.41299 53.924999 250.27699 5
191.733 53.591499 250.373 5
200.343 61.869202 249.69099 5
192.136 55.909199 249.289 5
192.43401 62.7486 250.49699 5
202.94 66.654602 252.138 5
202.16499 63.652401 250.55099 5
204.49699 55.343899 249.63901 5
197.416 62.5714 250.71899 5
198.325 53.223701 250.80499 5
203.52901 57.5284 249.54601 5
189.68401 63.494202 250.808 5
198.811 54.138901 249.58099 5
207.02699 56.7444 249.07401 5
195.54201 62.4324 250.40401 5
189.29201 53.7001 250.11099 5
190.784 57.936298 249.418 5
188.95 59.6712 249.681 5
193.48399 53.246101 250.806 5
186.46899 62.4123 250.576 5
204.202 62.771099 250.60201 5
192.326 50.099899 251.302 5
191.629 61.2006 249.94501 5
204.061 61.378601 250.144 5
204.763 57.730202 249.67101 5
197.744 61.0378 250.13499 5
207.591 55.624599 248.909 5
200.07001 66.132797 252.58299 5
189.793 58.746899 249.45599 5
188.5 49.169498 252.231 5
196.883 55.186901 249.675 5
206.496 60.090599 250.047 5
201.545 58.558399 249.293 5
187.44501 55.335899 249.812 5
194.157 55.745701 249.245 5
203.976 54.1628 249.694 5
194.98599 47.700298 252.08099 5
194.50999 51.351501 251.17799 5
194.605 64.509598 251.569 5
189.802 51.4361 251.714 5
191.44299 52.354099 251.28101 5
202.681 61.1702 249.86501 5
198.694 64.184402 251.813 5
197.035 59.934898 249.819 5
197.14 64.027 251.495 5
200.994 51.7822 249.661 5
194.278 61.802799 250.02699 5
197.205 50.265499 251.213 5
197.263 57.970299 249.55499 5
199.884 63.082901 250.202 5
198.185 58.9701 249.797 5
192.563 58.750599 249.37399 5
199.22 49.352901 250.899 5
201.41 60.990799 249.64 5
193.912 54.6031 249.784 5
200.278 53.452301 249.258 5
195.84599 50.418999 251.26199 5
198.93401 62.066299 250.64301 5
191.132 54.7318 249.508 5
188.55099 50.991798 251.718 5
192.19 48.5504 251.767 5
186.638 64.171097 251.25301 5
203.12199 59.107201 249.584 5
196.008 57.429199 249.414 5
196.071 60.881302 249.909 5
192.202 65.232002 251.979 5
189.12399 57.6446 249.424 5
199.71201 65.021103 252.092 5
205.312 64.055099 251.19901 5
196.94 51.817402 250.978 5
202.45399 55.647301 249.409 5
192.439 45.807701 253.439 5
206.752 54.589901 248.98199 5
190.91701 62.402901 250.261 5
201.832 62.1936 250.02 5
196.99001 53.9795 250.31 5
192.642 51.644901 251.134 5
187.597 53.905102 250.10201 5
199.218 58.303398 249.127 5
186.83501 60.371899 249.843 5
195.808 64.110298 251.255 5
196.259 47.3811 252.31599 5
206.32001 58.830299 249.94099 5
192.765 57.358501 249.341 5
188.269 47.959301 252.54601 5
198.75 50.637901 251.312 5
190.468 65.735901 252.19099 5
187.14 58.577499 249.657 5
194.265 45.8125 253.806 5
190.414 48.127602 252.136 5
201.15601 64.962898 250.91499 5
195.02699 59.156502 249.481 5
198.772 60.3353 249.92101 5
195.467 55.550301 249.284 5
199.21201 51.903999 249.933 5
198.108 48.8396 251.605 5
188.118 63.0364 250.685 5
202.464 53.6992 249.536 5
188.713 55.4496 249.67599 5
197.687 56.172699 249.589 5
200.98 57.4147 249.196 5
205.302 61.413799 250.306 5
200.194 50.044601 249.979 5
200.74899 59.7617 249.293 5
194.026 63.057201 250.69901 5
193.80299 47.242001 252.30701 5
189.757 46.556499 253.226 5
190.58099 50.074799 251.685 5
195.24699 52.52 250.87801 5
188.832 61.383598 249.939 5
193.80701 60.570999 249.677 5
190.15601 52.596001 251.02699 5
205.47301 56.609901 249.659 5
199.534 55.7533 249.08 5
191.287 60.0284 249.69 5
204.442 52.9622 249.735 5
186.83501 56.541199 249.66901 5
193.939 49.741402 251.349 5
183.5 52.472698 251.556 5
181.282 46.435902 258.45499 5
185.638 50.473099 252.61 5
183.058 47.112 255.929 5
182.142 53.4245 251.15199 5
182.50101 57.9417 250.356 5
183.37399 50.7113 252.29601 5
184.80499 55.4002 250.19 5
186.302 46.717098 255.017 5
185.82899 53.025902 250.864 5
180.338 47.642399 258.31799 5
180.487 49.7775 254.91499 5
182.752 48.469002 255.186 5
184.286 49.602299 253.383 5
201.866 39.771 260.66199 5
180.05901 52.214298 252.76601 5
184.922 46.217999 255.87601 5
186.21001 56.8979 249.675 5
186.53999 48.215 253.397 5
183.77699 59.610199 250.187 5
178.067 49.762798 256.54901 5
181.942 56.449501 250.425 5
187.12801 52.1026 251.58299 5
182.099 51.930401 251.838 5
180.198 46.429901 260.51501 5
185.916 59.156502 249.799 5
183.884 54.060799 250.64101 5
180.61099 48.3009 256.41 5
187.50301 49.874599 252.244 5
181.841 49.763901 253.267 5
178.23199 48.163101 261.26001 5
182.119 47.669201 255.914 5
182.959 56.738499 250.241 5
179.423 53.098701 252.636 5
180.455 46.5569 259.45099 5
186.056 47.302898 254.11 5
186.60201 49.518501 252.797 5
179.474 47.455101 259.52899 5
185.112 46.8811 254.791 5
183.51401 58.415001 250.112 5
187.802 48.836498 252.655 5
178.541 47.2201 262.19601 5
187.19901 46.762001 254.271 5
181.798 49.831501 254.438 5
187.532 51.043301 252.071 5
179.823 49.2616 255.756 5
180.853 50.792599 252.998 5
178.842 49.980701 255.582 5
184.68201 58.310001 249.955 5
179.164 47.224701 260.72 5
185.97701 51.395699 251.69 5
178.953 52.268398 253.373 5
179.72 51.173302 253.44501 5
181.58099 47.537102 256.827 5
184.87 60.324799 250.12601 5
181.927 55.0616 250.651 5
181.478 48.883999 255.42799 5
183.147 49.433498 254.177 5
183.231 55.2831 250.37199 5
178.09599 49.207401 258.39301 5
179.42999 46.5396 261.741 5
179.575 48.5592 257.491 5
182.14 50.914902 253.22701 5
176.7 51.001701 257.46799 5
177.12801 52.992199 254.722 5
183.116 61.181702 250.63699 5
183.81799 62.3274 250.814 5
178.269 52.592899 253.72701 5
183.897 60.588902 250.367 5
182.886 62.145199 251.02699 5
182.138 60.8335 250.72501 5
177.623 48.859501 261.00601 5
176.605 55.590401 253.881 5
176.72 49.157501 262.33899 5
179.116 53.371899 252.638 5
181.653 57.722801 250.556 5
177.487 49.956902 257.56601 5
179.51401 57.102901 251.38699 5
186.57201 54.537899 250.05901 5
176.522 49.990898 260.10101 5
180.052 55.642399 251.563 5
177.968 47.224998 263.58701 5
182.086 58.941601 250.39799 5
176.407 47.981899 264.27499 5
176.87399 50.291599 258.18399 5
179.03799 55.442799 251.99699 5
177.688 54.098499 253.411 5
180.26199 56.565399 251.011 5
176.476 53.0219 255.81 5
184.668 63.5154 251.181 5
178.673 60.049099 252.12199 5
177.72099 52.432201 254.362 5
180 65.447403 254.226 5
177.89 56.883202 252.51199 5
180.461 60.525398 251.187 5
184.59 47.837601 254.47 5
178.877 48.368401 259.26999 5
180.686 53.896198 251.58501 5
185.33701 61.950199 250.48599 5
184.724 51.470901 251.80299 5
182.60699 46.305801 257.517 5
178.828 50.6632 254.599 5
188.30701 46.901402 253.66 5
178.67599 46.834 263.285 5
184.084 57.235199 250.095 5
177.80099 47.7393 262.92599 5
178.644 53.883202 252.85899 5
178.12801 51.751701 254.21899 5
178.05099 48.91 259.39999 5
182.425 60.013302 250.489 5
177.26401 49.777901 258.77701 5
177.77901 54.8456 253.043 5
177.586 51.790298 254.83701 5
182.92 62.868698 251.261 5
178.34599 56.339298 252.233 5
177.681 53.069801 253.841 5
176.868 54.391701 254.14999 5
177.14 51.6217 255.545 5
176.729 52.194099 255.98199 5
181.63499 61.459099 251.09801 5
182.99899 59.581001 250.31799 5
177.474 55.827801 253.21201 5
176.45599 48.303501 263.54001 5
176.88499 47.304901 264.625 5
177.646 50.347599 256.388 5
177.60699 51.058899 255.30901 5
183.83501 61.3409 250.543 5
184.769 57.064999 249.978 5
185.009 52.774101 250.886 5
185.03799 48.314098 253.993 5
181.15401 54.9235 251.062 5
181.755 46.448002 257.87701 5
185.397 55.7276 249.936 5
183.52499 48.887699 254.464 5
181.311 49.801201 253.90199 5
185.336 51.1446 252.02 5
183.228 48.2556 254.67599 5
184.633 59.581501 250.052 5
184.729 61.017601 250.31799 5
183.632 54.685699 250.22 5
183.19501 53.4865 250.884 5
180.595 50.829201 254.006 5
183.78101 51.386902 251.907 5
182.205 57.1446 250.35001 5
178.823 49.024899 257.32501 5
178.705 49.370899 256.59201 5
186.862 48.7696 252.76199 5
186.078 56.1525 249.681 5
181.11 53.2925 251.767 5
184.291 52.584999 251.216 5
179.534 46.577801 260.987 5
182.616 55.618099 250.674 5
184.26801 51.830299 251.30299 5
182.04601 46.745701 257.18201 5
182.453 49.106701 254.87399 5
178.815 47.1796 261.47198 5
184.60699 47.1255 255.453 5
180.226 47.137501 258.85001 5
215.244 41.027302 266.11301 5
207.442 36.4039 265.23401 5
212.03 37.571301 265.12399 5
214.127 39.2188 275.84601 5
202.521 36.609901 270.83099 5
208.66701 35.9156 269.715 5
207.17101 39.063099 259.80399 5
214.60699 39.286701 270.172 5
202.936 36.392502 265.134 5
208.62601 37.9259 276.62701 5
214.13499 37.900002 259.966 5
185.855 58.545898 249.739 5
181.478 50.680099 252.95399 5
181.099 47.823399 256.51199 5
185.089 49.512798 253.386 5
182.043 48.4188 255.252 5
181.058 50.444599 253.74001 5
184.103 47.432999 254.804 5
183.287 47.487801 255.286 5
184.24699 46.317299 256.28201 5
180.873 48.631199 255.87601 5
185.224 53.4091 250.40199 5
184.071 50.184799 253.092 5
184.071 48.2827 254.526 5
184.36501 53.4077 250.504 5
187.65601 47.072701 253.858 5
180.936 46.911999 258.01901 5
181.855 46.059101 258.55099 5
183.26401 49.907001 253.672 5
186.39799 53.337898 250.54401 5
184.187 49.1623 253.936 5
188.134 47.128601 253.06799 5
186.255 55.345299 249.905 5
179.702 48.821201 256.51401 5
181.81599 51.449799 252.591 5
178.992 51.369999 253.938 5
178.16 49.3288 257.487 5
181.45799 47.035599 257.58401 5
184.744 50.2374 252.90601 5
182.47 47.1367 256.64099 5
183.22701 46.520401 256.85999 5
185.40601 52.280998 251.22701 5
178.871 48.6992 258.091 5
178.246 48.551102 260.40701 5
184.806 53.937302 250.507 5
180.224 52.8829 252.117 5
180.756 47.618198 257.29001 5
183.245 50.379299 252.992 5
183.85201 53.165798 250.985 5
179.65199 50.433701 254.161 5
185.295 57.595798 249.722 5
182.972 51.6045 252.118 5
185.839 60.4212 250.05901 5
181.50101 54.322701 251.256 5
183.841 47.125301 255.325 5
184.817 56.3055 249.776 5
187.62601 47.5965 253.395 5
185.562 54.5928 250.19 5
181.286 55.741001 251.071 5
186.644 50.594601 252.435 5
180.95799 51.979099 252.319 5
182.30499 50.681 252.23399 5
185.02299 48.8932 253.56599 5
182.67599 54.491699 250.83501 5
186.16901 52.161598 251.36 5
179.595 48.1684 258.172 5
184.24699 58.9631 249.995 5
186.534 52.678001 250.864 5
185.459 46.602501 255.446 5
179.771 46.933701 260.078 5
183.744 55.887001 250.32899 5
180.435 54.629902 251.414 5
185.29601 47.565498 254.205 5
182.507 49.800098 253.85699 5
183.791 46.731998 256.02499 5
180.116 53.744999 252.134 5
179.702 49.954601 254.95599 5
185.776 48.0257 253.577 5
180.812 49.372101 255.537 5
178.754 47.941002 260.02899 5
184.444 54.667 250.231 5
183.28799 57.4841 250.10001 5
183.366 51.698898 251.286 5
182.76401 58.753899 250.25301 5
180.259 51.402401 252.783 5
178.071 50.299 255.646 5
182.564 52.725101 251.355 5
181.48 48.3409 256.073 5
185.80701 48.777599 253.256 5
186.034 53.891399 250.29601 5
186.87199 47.2374 253.64301 5
180.47 49.775101 254.05701 5
184.235 50.862099 252.177 5
182.623 49.904701 252.899 5
185.703 49.685299 252.98801 5
187.274 48.158298 252.924 5
177.099 40.2728 282.845 5
182.89 40.8377 285.16199 5
187.895 41.091999 287.43701 5
177.315 40.058399 279.742 5
183.76199 39.681499 281.38101 5
189.256 38.696602 281.129 5
176.342 40.448299 286.48599 5
180.132 42.265598 287.465 5
180.64301 39.290298 278.71701 5
186.16299 39.977699 284.64301 5
179.942 40.805 283.077 5
186.23801 38.702801 278.33701 5
183.804 43.132 289.78601 5
177.27299 40.9412 275.617 5
179.06599 61.634899 252.334 5
212.522 70.782501 250.356 5
209.384 67.425797 249.675 5
208.605 68.875198 250.371 5
207.10001 61.9916 249.742 5
205.689 63.791302 251.146 5
208.683 70.477097 251.506 5
207.451 68.3573 253.73 5
213.38699 69.723198 250.007 5
210.243 61.4608 249.036 5
208.258 60.084099 249.345 5
211.64999 67.389801 249.106 5
209.466 62.252602 249.19901 5
208.964 58.1674 248.444 5
210.399 67.962601 249.474 5
208.808 56.836601 248.438 5
191.733 39.813801 285.138 5
186.451 39.540798 283.40701 5
181.619 39.008701 277.832 5
184.68401 39.233601 279.75101 5
184.036 42.488701 288.60501 5
187.85699 39.052601 281.71701 5
185.55499 42.394001 288.556 5
186.04201 40.994801 286.655 5
181.735 39.4044 279.61301 5
189.36099 39.9538 285.70801 5
187.569 40.382599 286.17401 5
177.005 40.8232 288.26901 5
186.58 39.105301 280.52802 5
180.62801 39.258801 276.93701 5
184.983 39.638 282.40701 5
188.103 39.204498 283.07001 5
185.11301 41.692402 287.44 5
188.834 38.635601 279.47699 5
190.179 39.2971 284.048 5
178.049 40.808102 286.845 5
178.843 39.8522 278.13 5
182.461 40.3013 282.867 5
180.849 41.400299 285.617 5
181.851 40.026901 281.078 5
184.08501 40.094002 283.578 5
182.466 41.863499 287.077 5
179.436 39.8451 280.52899 5
188.57201 39.539001 284.57101 5
179.478 40.182701 276.52802 5
179.01199 40.956001 285.43701 5
183.668 38.946201 278.89301 5
186.452 39.2668 282.04199 5
177.498 40.696602 277.34201 5
210.625 66.848099 249.282 5
205.25999 64.768799 251.55299 5
209.218 61.147202 249.33099 5
207.104 59.506599 249.58501 5
213.39999 68.9263 248.931 5
209.436 64.655197 249.289 5
209.49001 68.613899 249.826 5
207.79401 57.478901 248.664 5
209.85899 57.445599 248.37199 5
208.30099 62.930401 249.502 5
213.37199 56.716099 247.91701 5
212.959 65.675201 245.901 5
207.373 66.971901 252.02901 5
213.627 70.639198 250.578 5
211.298 65.282501 248.83501 5
209.86 56.2757 248.743 5
211.45799 68.463303 249.397 5
206.912 64.341499 250.843 5
208.133 69.470901 251.246 5
208.925 59.3027 248.888 5
212.60899 54.4561 246.23399 5
210.558 62.561298 248.853 5
204.786 66.4067 252.369 5
213.461 63.377201 244.646 5
210.907 71.322601 250.724 5
208.782 66.564102 249.69501 5
208.825 55.738998 248.825 5
206.48599 61.334999 250.339 5
213.592 67.810303 247.313 5
207.735 69.373199 254.453 5
213.892 58.2668 246.13901 5
212.743 60.912601 246.222 5
208.084 65.5998 249.714 5
207.785 68.375702 251.563 5
207.91901 58.6553 248.867 5
209.97301 65.795403 249.233 5
209.646 63.390598 249.104 5
212.77699 63.926601 245.55099 5
206.98801 67.526497 253.16901 5
205.88901 66.903099 252.918 5
213.125 55.629101 247.192 5
212.67 62.4221 245.759 5
209.82201 71.440804 251.495 5
213.33701 58.2654 247.53799 5
207.09599 63.083599 250.095 5
210.45 69.662102 250.007 5
213.681 64.693901 245.006 5
207.924 67.838097 250.46201 5
211.08299 63.885201 248.702 5
207.729 61.057098 249.67 5
207.823 70.505402 252.213 5
207.987 64.352699 249.599 5
213.51801 59.687801 245.571 5
206.453 65.584801 252.026 5
212.629 66.350899 247.276 5
214.089 66.805801 246.037 5
209.543 70.190697 250.88499 5
205.95599 62.8134 250.767 5
212.989 59.398602 246.91701 5
213.57899 61.756802 245.048 5
207.43401 65.936401 250.62801 5
212.088 69.9459 249.922 5
207.64999 68.792702 252.72301 5
212.662 67.6017 248.315 5
178.036 55.7687 252.65401 5
177.039 52.244202 255.097 5
176.64999 50.223701 259.103 5
179.989 64.407799 253.271 5
185.603 62.922699 250.86 5
180.356 59.4048 251.05099 5
178.01199 48.7752 260.121 5
183.071 60.367699 250.39 5
179.405 56.2719 251.717 5
179.942 63.1819 252.51199 5
183.69501 63.2911 251.284 5
177.27499 64.012604 255.06 5
177.092 50.483101 256.957 5
178.492 53.302898 253.26601 5
180.896 41.000599 284.34698 5
176.601 53.604301 255.03 5
177.96001 60.507401 252.668 5
179.315 58.514198 251.54601 5
175.375 61.913898 257.965 5
176.983 49.477402 260.94101 5
176.31799 61.742199 255.256 5
182.047 62.105499 251.24899 5
179.758 61.153702 251.722 5
181.022 57.1199 250.73599 5
177.19299 54.9855 253.50101 5
179.117 65.155602 254.658 5
176.36501 52.282299 256.664 5
184.452 61.806499 250.57899 5
177.92799 49.243 258.64401 5
176.28999 64.0644 256.78699 5
177.42599 47.693699 264.17401 5
182.403 64.360703 252.24001 5
181.11099 58.761902 250.709 5
176.44701 58.620499 253.95 5
176.33701 51.033199 258.44901 5
177.32401 59.773201 253.131 5
177.14 53.6758 254.09399 5
177.349 48.296902 262.96201 5
178.662 62.579102 253.017 5
176.84399 57.740799 253.506 5
180.457 62.011101 251.70799 5
182.66701 63.502399 251.65199 5
176.533 60.623299 254.2 5
181.312 60.751499 250.98399 5
177.86501 61.443501 253.293 5
174.989 61.594398 258.979 5
177.037 56.613201 253.244 5
176.924 51.345699 256.237 5
180.328 57.9921 250.95599 5
177.465 48.854099 261.866 5
177.117 62.2822 254.522 5
178.38499 58.8181 252.196 5
178.718 57.1964 251.964 5
175.51199 63.055599 257.69601 5
175.746 60.766399 255.703 5
184.15601 64.342499 251.755 5
178.439 54.560902 252.589 5
175.076 60.6563 257.97501 5
178.737 63.689999 253.62801 5
181.13699 63.032398 251.862 5
176.51401 63.065201 255.72099 5
175.72501 61.767601 256.61899 5
177.218 49.508099 259.78101 5
184.702 39.4688 280.90701 5
182.965 39.657398 280.65601 5
181.54601 40.396301 282.293 5
185.293 39.921501 283.992 5
177.744 40.134899 281.87701 5
181.927 41.3158 285.858 5
181.57899 40.647598 283.547 5
189.327 39.102699 283.228 5
183.114 41.315498 286.164 5
185.479 40.471401 285.39899 5
185.73399 38.996201 279.39099 5
178.37399 39.807598 279.414 5
182.62601 40.473999 284.004 5
184.258 40.419498 284.702 5
180.618 39.900902 280.577 5
177.59 57.870399 252.7 5
181.39301 42.252201 287.42599 5
184.81799 38.8437 278.57901 5
178.006 40.3358 285.21899 5
182.82899 38.7752 278.04099 5
183.604 41.927101 287.483 5
177.179 40.219398 284.05301 5
176.573 40.316502 285.19299 5
189.76801 38.828499 282.233 5
179.687 40.285198 281.64999 5
178.278 40.156399 283.19901 5
188.74899 40.318901 286.72101 5
184.327 41.277199 286.55399 5
177.091 40.275299 281.00299 5
190.707 40.062302 285.914 5
187.34 38.815601 279.48401 5
188.235 38.759399 280.51999 5
181.399 64.223099 252.5 5
178.17599 51.246201 254.743 5
178.007 47.875599 262.211 5
181.737 59.7458 250.69901 5
177.918 62.751598 253.80701 5
179.595 54.550499 252.133 5
185.631 64.245598 251.459 5
188.728 38.968399 282.112 5
178.82899 40.0061 281.30499 5
177.16701 40.602798 287.34 5
183.73599 39.359699 279.91101 5
176.55499 40.431599 282.05801 5
185.64799 39.270699 281.026 5
180.438 40.5956 282.194 5
181.98599 40.855999 284.65201 5
179.55 39.570999 279.5 5
179.756 39.593601 277.30301 5
179.33299 40.797298 284.49701 5
182.582 39.143002 279.13199 5
183.93201 40.865398 285.547 5
176.366 41.065399 276.78 5
179.02901 40.4039 282.564 5
186.601 40.3106 285.49701 5
188.26601 39.926899 285.45901 5
176.425 40.453999 280.06699 5
180.70799 41.786301 286.56299 5
179.50101 41.453098 286.22 5
178.06799 40.015701 280.66599 5
178.326 40.271801 276.82101 5
177.439 40.1422 278.686 5
187.214 39.836899 284.789 5
190.74899 39.633301 285.01599 5
197.004 37.3731 266.082 5
188.35001 38.8564 266.59601 5
199.593 36.1119 271.168 5
182.957 41.2262 269.09299 5
182.51199 38.987801 272.41599 5
191.10899 37.664001 267.56601 5
188.526 38.228401 269.65701 5
199.68201 36.2267 267.965 5
186.354 38.006001 274.439 5
185.99699 38.069302 275.436 5
179.83299 43.087002 266.76099 5
183.45399 38.7439 271.48901 5
194.118 37.377102 267.04599 5
178.218 42.388302 270.61899 5
211.153 37.0443 272.77399 5
181.13699 41.2784 266.246 5
201.76601 36.151402 266.11099 5
184.694 38.4156 274.05301 5
188.235 38.551102 278.62201 5
194.51801 37.361198 265.76501 5
188.22501 38.6306 270.45801 5
195.825 37.634998 267.67401 5
191.70599 38.086899 269.34299 5
185.274 39.727501 265.96201 5
186.27699 38.847099 272.388 5
192.77299 38.187302 265.48801 5
179.175 40.6507 272.79999 5
177.435 41.800301 272.565 5
196.908 36.323399 270.52499 5
187.265 38.429298 270.31799 5
184.92101 38.4384 277.315 5
185.276 39.491699 266.815 5
185.498 38.539398 270.14899 5
191.548 38.394798 267.23599 5
188.123 38.341599 271.789 5
183.989 40.733398 270.44501 5
180.741 40.727299 270.26999 5
198.755 36.386398 268.35901 5
182.02901 39.4076 275.47501 5
182.95 40.4189 266.21201 5
177.48599 41.034901 274.603 5
187.44299 38.4048 268.77301 5
184.21001 40.9436 268.952 5
178.686 40.414902 274.867 5
193.666 37.6446 267.86401 5
194.96201 36.660801 269.80301 5
191.411 37.151402 272.00101 5
194.48 37.034401 268.487 5
179.48199 41.889999 269.96701 5
178.233 44.176201 266.97 5
184.42 40.252399 267.34 5
180.752 41.5541 267.099 5
187.418 38.352299 277.341 5
191.78999 38.929901 266.59 5
183.774 38.943699 270.60001 5
177.54401 42.996101 270.17099 5
184.082 38.405102 276.72601 5
200.617 37.107899 265.14899 5
178.88699 42.7743 268.89499 5
187.942 37.7864 273.72699 5
184.91 39.9533 268.47501 5
187.80901 37.7258 274.65399 5
183.633 39.316299 273.09399 5
196.127 37.291801 273.99301 5
190.698 37.806099 276.20099 5
191.12801 37.060398 271.12601 5
192.07899 37.902 276.064 5
183.77699 38.650101 274.534 5
179.22501 41.1908 271.74399 5
190.495 38.211601 277.61301 5
176.592 44.867901 267.685 5
199.49001 36.612 272.22299 5
180.425 42.992699 266.01801 5
184.519 40.553299 269.78101 5
183.172 38.643799 275.56 5
197.892 36.1618 270.535 5
188.133 38.460899 268.08099 5
186.565 38.0126 276.233 5
192.92999 37.1619 274.177 5
195.403 36.429401 271.71799 5
184.474 39.943199 266.5 5
179.76199 39.815701 274.69299 5
178.043 42.043301 271.49301 5
177.922 40.992802 273.82401 5
180.851 39.615601 274.21899 5
196.131 36.718201 267.828 5
189.60899 37.640202 275.94101 5
200.407 36.453602 271.521 5
199.29401 36.094898 270.28201 5
188.35201 37.533401 275.38599 5
181.94099 39.152401 271.56201 5
176.631 43.515499 270.04599 5
180.53101 41.067299 267.819 5
177.91299 40.701099 275.29099 5
194.78 37.847 267.953 5
193.183 36.960899 270.866 5
181.22099 40.102501 268.948 5
191.084 37.4007 275.12201 5
193.325 36.866402 269.79099 5
188.84599 37.3787 272.19101 5
186.76601 37.916 273.36301 5
191.468 37.5849 270.26199 5
179.07201 40.459202 273.905 5
195.80099 37.191799 265.966 5
176.711 45.521198 266.85901 5
185.437 38.104801 274.66299 5
185.71899 39.180199 269.13599 5
181.158 39.894001 275.237 5
188.979 37.471401 274.20599 5
191.01401 38.1759 266.383 5
178.35201 43.3055 268.37299 5
189.87399 37.751202 268.30099 5
199.284 36.512901 266.47101 5
190.239 38.468498 265.42099 5
185.177 38.9328 273.095 5
189.78799 37.368801 272.83701 5
182.381 40.530602 267.55701 5
179.94099 41.3508 270.51099 5
196.539 36.499401 269.61499 5
190.58299 38.040001 269.186 5
186.649 39.1381 267.638 5
180.69501 39.988998 272.203 5
176.487 44.2794 268.845 5
183.76801 39.841 270.69101 5
197.66901 37.484001 265.09201 5
188.03101 39.1828 265.76801 5
202.041 36.071301 269.57599 5
191.32899 42.493401 256.285 5
188.00301 44.571201 256.52301 5
185.64799 40.915298 261.396 5
179.851 43.796398 265.86499 5
194.39999 45.144699 254.134 5
179.09599 46.593498 262.811 5
197.30901 40.662998 261.98801 5
191.11099 39.807301 261.737 5
200.793 40.750599 259.19699 5
182.272 43.557899 262.556 5
188.259 40.936699 258.13901 5
190.382 45.937401 253.80099 5
194.644 38.029301 264.48901 5
186.907 39.886101 265.14999 5
182.728 39.576801 274.17001 5
202.271 36.6945 264.564 5
176.327 46.385601 266.23801 5
194.715 42.084999 258.03799 5
180.724 40.426102 268.58701 5
179.664 42.7976 267.62799 5
180.88699 40.3442 271.116 5
181.414 39.376801 271.961 5
179.629 41.313099 271.13599 5
195.282 36.875301 268.20999 5
185.382 38.5466 270.84698 5
178.881 43.647598 267.04001 5
181.584 39.390598 273.383 5
201.38 36.4077 265.401 5
201.623 36.1045 266.90399 5
178.629 41.598202 271.60199 5
184.15601 45.978199 256.83899 5
189.19901 41.948502 256.56601 5
193.575 40.060501 258.77802 5
183.53799 42.2066 260.58099 5
185.98599 44.6306 257.81 5
193.495 43.690399 256.41599 5
200.784 37.887299 263.51199 5
196.90401 39.029499 263.39899 5
187.536 41.385201 263.19601 5
184.85001 40.185299 263.953 5
192.44 39.355 263.68301 5
199.08099 41.101799 260.56201 5
187.588 42.064701 265.315 5
180.765 44.723301 263.82999 5
178.45799 45.7855 264.95001 5
195.912 43.929798 255.556 5
182.396 40.939201 265.35101 5
191.963 44.655499 255.22501 5
183.27901 41.260399 262.83899 5
187.924 46.638302 254.28999 5
186.226 42.513802 257.73499 5
196.782 41.848499 259.63599 5
188.395 40.439899 261.22501 5
191.31799 40.1306 258.797 5
199.937 39.181 261.89499 5
194.674 39.525501 260.51099 5
190.698 38.327099 264.591 5
197.84801 42.6689 257.02301 5
184.39101 43.7342 259.36899 5
181.58 45.686298 259.85501 5
203.239 38.287899 261.47501 5
198.379 37.647701 264.72 5
188.739 39.576099 263.52802 5
189.80099 38.521599 266.09 5
177.21201 43.5485 269.49301 5
185.092 38.2281 275.423 5
184.918 38.73 271.72198 5
187.02 38.3246 269.54199 5
187.33 37.830799 276.05399 5
193.353 37.301601 266.474 5
189.399 38.116798 269.58301 5
189.073 38.586899 266.87399 5
179.83099 40.0201 275.478 5
192.651 36.906601 270.24799 5
185.978 39.226299 268.09601 5
201.117 36.0499 268.09698 5
184.647 38.777802 270.26599 5
200.761 36.25 266.76001 5
177.856 43.393002 268.91 5
180.463 39.582901 272.88599 5
183.011 40.9352 267.957 5
190.38499 37.714199 270.978 5
190.325 37.939499 267.61401 5
180.153 41.488602 269.24701 5
182.909 39.0452 274.87701 5
186.726 38.541401 270.94699 5
181.41901 39.7705 271.35001 5
192.54401 37.482201 267.73599 5
199.924 36.279099 266.961 5
183.89 40.395 266.09601 5
190.534 37.1562 272.099 5
189.09399 38.196899 268.07001 5
187.39999 39.290501 266.33701 5
192.005 36.973701 272.61099 5
187.33701 38.833801 268.07599 5
186.37399 39.362099 266.96301 5
192.228 39.540501 266.534 5
194.10699 37.679401 268.45599 5
196.51199 37.004299 267.16501 5
181.054 39.6343 276.06 5
188.938 38.769299 266.147 5
192.52699 38.109001 266.77399 5
178.612 40.776699 273.39401 5
192.46899 38.711201 265.94601 5
186.01601 39.9403 265.41901 5
199.783 37.212601 265.81699 5
180.36099 41.094601 268.62399 5
178.756 42.542301 269.61401 5
188.718 38.106098 271.36099 5
178.17799 43.660198 267.71201 5
181.702 40.2122 268.07199 5
198.35201 37.381599 265.439 5
179.886 40.349602 272.75 5
177.47 41.3801 273.32901 5
183.158 41.1101 270.341 5
184.39 40.506199 268.27499 5
201.013 36.364399 266.02301 5
188.425 38.706501 267.392 5
193.51801 37.144402 269.04999 5
189.64101 37.8522 271.20401 5
192.63901 37.998798 268.93701 5
197.54601 37.747299 266.86899 5
188.646 38.234699 277.29599 5
188.183 38.114498 268.84299 5
189.09801 37.374802 275.147 5
180.14101 41.953999 268.00601 5
181.908 40.382801 269.56699 5
208.631 36.912899 264.46701 5
208.26401 37.490299 275.48199 5
206.392 36.402199 271.19501 5
207.646 38.4352 260.617 5
214.765 40.507099 265.22699 5
210.94501 36.929199 265.09799 5
211.67101 36.647701 258.88199 5
202.722 36.1866 266.237 5
214.944 39.710499 267.759 5
214.166 39.9021 266.298 5
207.793 36.0322 268.64401 5
212.739 38.111301 273.082 5
208.036 36.1805 266.48901 5
209.03999 36.019001 267.93399 5
197.31 36.486099 267.95999 5
210.75999 37.9375 260.01901 5
213.69901 37.803501 269.55701 5
210.53999 37.338902 275.46701 5
208.019 36.069199 270.90799 5
211.47701 36.728699 269.11899 5
210.692 36.880402 273.89401 5
206.476 36.274799 268.39001 5
214.60699 39.8498 264.12299 5
208.07201 36.937698 274.37201 5
204.16499 35.954201 268.539 5
208.47501 38.3111 261.56799 5
211.774 37.031399 267.77499 5
213.104 36.279099 257.55801 5
212.64301 38.772202 263.24899 5
203.40199 36.109901 267.26199 5
209.22099 36.659901 274.35001 5
205.616 36.304001 266.19101 5
206.496 37.7299 262.216 5
208.87601 37.980801 262.31 5
205.259 36.245602 267.07599 5
203.87 36.1759 266.44699 5
210.218 38.268101 261.13599 5
204.345 36.135101 267.34201 5
206.82001 36.895 263.82101 5
204.39101 36.315399 270.04401 5
210.78799 37.528198 259.112 5
207.522 36.888199 273.54599 5
203.37399 36.535099 264.22601 5
210.651 37.516499 263.892 5
204.54401 36.892399 262.99899 5
212.272 37.525002 270.58899 5
213.33501 38.292801 267.28799 5
213.614 39.606602 264.242 5
208.666 38.670399 260.62201 5
213.37601 38.784599 262.52499 5
209.741 35.998199 268.71899 5
205.44299 37.409901 262.366 5
212.45399 38.386799 275.50101 5
214.09399 39.216 274.11801 5
206.77499 38.2495 261.45999 5
206.744 37.384998 274.319 5
212.511 37.800598 271.854 5
212.754 37.6954 267.95001 5
205.368 38.507099 260.68201 5
214.745 40.553001 266.96201 5
206.73 37.34 262.98001 5
213.15199 36.9599 259.642 5
213.63901 38.762798 270.474 5
211.099 36.744801 271.08301 5
211.21201 37.754799 263.082 5
206.321 36.6189 272.36401 5
209.728 38.572899 260.38901 5
206.95399 36.2878 270.20801 5
206.952 37.750301 275.29599 5
204.71899 36.2756 266.008 5
203.57201 36.834999 263.297 5
212.98801 38.146999 270.96799 5
213.746 39.621201 265.263 5
207.425 37.8913 262.22 5
207.489 36.135201 267.53101 5
212.767 36.332699 258.82501 5
209.87 37.005001 264.41501 5
211.858 37.794899 260.565 5
208.043 36.253101 272.104 5
213.994 39.165001 267.42599 5
205.752 37.004601 263.34698 5
208.57899 36.4366 273.32101 5
205.304 36.458401 270.944 5
211.586 38.027 276.04401 5
209.70399 36.1376 266.965 5
213.689 38.772202 272.918 5
212.37801 37.543499 269.03201 5
214.358 36.393398 257.138 5
214.17 39.151299 263.185 5
205.325 36.1992 267.98499 5
209.827 38.172199 262.13 5
204.041 38.000801 261.495 5
210.71201 37.059502 258.17099 5
205.662 37.066101 273.97101 5
202.88699 35.8717 268.47198 5
213.028 38.771301 264.50601 5
210.644 36.156601 267.93301 5
210.707 36.565601 266.151 5
209.95399 38.062302 259.14499 5
213.256 38.6073 266.07001 5
213.901 37.071602 258.52899 5
210.035 36.276199 272.48099 5
205.47501 36.341599 269.55499 5
205.27901 36.479198 264.72501 5
