# .PCD v0.7 - Point Cloud Data file format
VERSION 0.7
FIELDS x y z label
SIZE 4 4 4 4
TYPE F F F U
COUNT 1 1 1 1
WIDTH 1692
HEIGHT 1
VIEWPOINT 0 0 0 1 0 0 0
POINTS 1692
DATA ascii
117.243 16.312401 265.625 2
116.113 20.773701 264.116 2
116.675 20.626101 264.48099 2
120.565 19.4622 263.15201 2
119.605 16.768101 264.51001 2
117.796 18.2318 264.547 2
133.32899 28.5 258.617 2
120.368 31.4161 263.52802 2
124.449 23.0604 261.077 2
130.06799 27.142099 259.229 2
117.168 23.2108 263.30801 2
127.578 27.716801 260.16101 2
120.715 26.207701 262.013 2
123.269 35.460899 262.11899 2
116.406 27.674 264.44 2
131.07899 24.6339 259.34698 2
123.974 30.247 261.29901 2
136.548 26.1831 258.905 2
129.94701 30.9958 259.60199 2
113.794 22.2272 264.72101 2
120.962 22.5089 262.439 2
127.53 24.1742 260.035 2
124.575 27.0679 261.12201 2
114.759 25.3004 264.73199 2
119.299 28.268 263.189 2
126.803 33.2868 259.95599 2
129.994 25.670601 259.23499 2
113.848 23.332199 264.75 2
131.13699 27.022499 259.06299 2
117.742 26.4233 263.49799 2
119.761 26.407499 262.48199 2
129.13 26.773001 259.58801 2
123.26 24.5655 261.436 2
122.826 33.9842 262.46899 2
114.259 24.313999 264.689 2
124.756 28.861 261.10999 2
118.282 27.9601 263.52499 2
117.23 27.2402 263.888 2
131.427 25.5816 259.099 2
128.537 27.608601 259.776 2
133.772 26.9655 258.698 2
123.653 33.587799 261.95099 2
124.825 35.119499 261.09799 2
125.297 27.749399 260.89801 2
123.482 31.0242 261.72601 2
120.292 23.2785 262.63599 2
126.391 24.716 260.319 2
124.849 33.5149 261.11899 2
117.194 28.312401 264.20901 2
120.518 30.302999 263.04599 2
126.522 26.3757 260.35999 2
122.258 28.0746 261.552 2
117.125 22.2358 263.49301 2
125.197 30.317499 260.758 2
129.584 30.010799 259.767 2
121.823 32.122398 262.81 2
119.524 27.303101 262.77399 2
129.133 31.7456 259.77499 2
121.226 32.707401 263.478 2
119.581 29.7754 263.35999 2
117.935 21.6989 263.371 2
126.203 27.3766 260.52899 2
122.801 27.255501 261.444 2
121.403 30.2449 262.60001 2
122.597 31.344601 262.27701 2
118.67 26.8752 263.15302 2
127.589 29.382 260.323 2
121.196 24.9321 262.228 2
118.717 23.291401 262.66599 2
114.995 22.380699 264.185 2
128.739 30.3825 260.07599 2
123.237 22.8284 261.50101 2
131.562 28.386499 258.93201 2
124.008 31.924 261.69299 2
115.74 24.638901 264.16 2
123.869 26.228701 261.37601 2
129.41499 28.086201 259.51199 2
119.601 25.2267 262.302 2
121.647 26.821199 261.755 2
118.24 24.3472 262.88 2
122.969 29.808901 261.69601 2
111.751 20.4237 266.44901 2
120.222 28.9112 262.86301 2
116.714 24.2854 263.73401 2
120.598 27.370001 262.23999 2
125.677 33.185299 260.66901 2
116.045 22.756201 263.729 2
115.66 26.0352 264.38101 2
126.951 31.827299 260.362 2
127.178 25.4333 260.07401 2
132.784 25.6 258.961 2
148.549 17.103399 271.944 2
146.233 17.9298 273.51801 2
150.53 17.109301 275.87399 2
153.40401 20.7833 274.548 2
154.44701 22.514799 274.79099 2
150.726 20.448 269.34299 2
153.505 23.9473 271.01401 2
148.698 16.6954 276.14899 2
145.23 19.954 268.539 2
146.468 25.921 260.10501 2
149.278 22.600201 264.92499 2
146.459 13.7483 278.91 2
146.548 16.365999 272.711 2
147.88901 19.5343 267.29999 2
147.47701 22.1019 263.83499 2
114.278 11.6416 284.29199 2
146.905 20.5481 265.569 2
145.936 22.714199 262.936 2
151.498 18.9363 273.453 2
154.336 25.660101 270.98801 2
147.382 15.9802 276.66699 2
148.97301 25.170099 262.98499 2
149.80499 21.764299 266.258 2
149.257 27.694201 262.35101 2
148.826 18.161699 270.858 2
152.22501 24.7096 269.42599 2
147.29601 18.695999 272.55099 2
146.47 17.6026 269.95499 2
151.67999 24.1313 270.72101 2
146.963 15.2181 274.58499 2
148.94099 16.8808 274.46201 2
155.164 24.141199 273.90701 2
153.59801 22.1887 273.07101 2
144.48199 25.4648 259.45599 2
146.21001 13.9132 280.67099 2
146.215 19.306499 267.125 2
151.338 27.296499 265.55801 2
147.895 15.9074 273.72101 2
150.674 22.2384 267.48599 2
147.93201 23.436199 262.923 2
153.108 25.832199 269.983 2
150.47099 19.0835 271.203 2
148.285 27.663 261.009 2
149.95399 16.317801 277.733 2
152.127 19.0165 274.92499 2
146.53101 18.135201 271.36401 2
144.617 23.9622 263.849 2
147.407 18.373301 268.79999 2
148.463 21.1194 265.56601 2
149.254 19.581699 268.42001 2
150.299 24.0641 265.194 2
151.651 22.783199 270.19699 2
149.72701 28.9354 263.159 2
154.731 24.618401 272.36099 2
149.991 17.582899 273.76801 2
146.024 21.6605 264.66599 2
145.55499 23.549801 261.56 2
151.785 24.423401 267.12 2
149.91 26.093399 263.867 2
148.271 15.0758 279.38 2
152.563 26.888901 267.60101 2
152.213 20.6833 271.95401 2
147.409 24.9317 261.293 2
147.097 14.4888 277.32599 2
151.31799 20.631001 270.319 2
146.42 24.1898 261.14301 2
145.452 21.4842 263.702 2
147.81599 26.544901 260.85599 2
148.817 23.7293 263.565 2
149.201 26.2393 262.70901 2
150.673 21.097799 268.45099 2
150.987 23.8857 266.58401 2
150.92 24.8783 265.64001 2
145.767 23.7062 263.62299 2
154.136 23.657101 272.09399 2
151.338 26.054501 265.85699 2
147.53 21.3689 265.064 2
152.88499 21.792 271.931 2
152.72 23.042801 270.896 2
150.69901 25.762699 265.022 2
148.28999 22.2633 264.49701 2
148.13499 14.8737 278.35001 2
148.26401 24.982201 262.13501 2
147.68201 19.986799 266.37 2
146.668 19.0123 268.185 2
151.716 21.736099 270.108 2
152.37399 20.127501 272.99799 2
146.82401 17.633801 272.71399 2
150.16 24.9813 264.60501 2
153.66701 21.879999 274.048 2
145.569 25.631201 259.70401 2
149.25301 16.9424 273.45901 2
150.60699 19.8288 270.14099 2
150.828 18.866899 272.13 2
149.37199 24.658701 263.75101 2
152.278 24.949499 267.97601 2
151.134 21.8965 269.20099 2
145.45799 24.704399 260.15201 2
152.702 25.8221 268.52701 2
148.86099 15.4485 277.53 2
148.302 25.9333 261.67801 2
152.366 21.8769 270.98001 2
145.536 17.7999 272.31699 2
150.55 27.2925 264.41299 2
150.067 20.999901 267.40701 2
149.84801 17.795799 272.42401 2
149.452 19.0606 269.64301 2
154.29601 23.2467 273.46399 2
146.521 15.1717 276.07199 2
151.255 23.4282 269.12601 2
147.82201 18.2456 270.035 2
145.718 18.8967 268.62799 2
151.709 19.5994 272.379 2
147.573 15.9862 275.414 2
153.03999 21.0758 273.27701 2
150.929 17.8543 274.957 2
152.63499 19.910801 274.15799 2
148.735 20.2171 266.76001 2
147.25 14.3699 280.245 2
153.49699 22.9053 271.62701 2
149.875 27.3008 263.41699 2
145.134 23.5856 262.73099 2
151.935 26.9058 266.51001 2
146.858 23.2262 262.418 2
152.578 24.8815 270.66199 2
145.80099 20.319401 265.255 2
151.71899 23.895599 268.16101 2
152.11301 25.741199 267.267 2
140.33501 19.8724 262.64899 2
142.46001 20.4049 264.51001 2
145.217 19.3566 265.91901 2
144.334 19.5963 269.22601 2
139.80701 22.9118 259.69501 2
142.698 23.293699 260.60001 2
142.33299 20.877501 262.491 2
143.38 18.661699 265.552 2
139.23399 21.424999 261.759 2
144.086 22.0853 262.897 2
144.32201 23.459499 261.32599 2
138.72099 19.219 262.51599 2
139.799 18.6691 263.828 2
138.03 20.0347 261.34698 2
142.733 24.689199 259.85101 2
143.47501 20.779499 264.814 2
141.284 19.266899 264.01001 2
141.791 22.749201 262.96201 2
142.133 18.129601 265.88501 2
141.13499 22.866301 260.09799 2
143.728 20.9963 263.91199 2
139.20599 23.8857 259.392 2
142.88499 22.3869 262.845 2
142.534 19.275499 264.37 2
142.399 22.874399 261.61099 2
139.68401 22.298401 262.314 2
137.91701 21.1343 261.32999 2
145.106 21.812901 263.147 2
143.814 19.366199 268.11499 2
142.995 18.5168 266.547 2
145.20799 18.982 266.905 2
143.867 20.2162 264.85901 2
135.36099 17.621901 264.07001 2
137.431 18.055799 263.564 2
137.52 17.1418 265.008 2
137.08701 11.4609 277.245 2
137.326 12.0303 274.65799 2
136.565 11.6506 275.64499 2
131.073 11.371 272.65302 2
140.145 13.2715 272.259 2
140.245 12.664 274.59 2
140.47501 11.9786 277.216 2
141.366 14.0928 273.73001 2
137.563 16.865801 267.10501 2
138.748 11.9877 275.939 2
132.44 14.1865 267.543 2
140.74899 13.7586 271.65201 2
142.951 23.502199 263.293 2
136.25999 18.1786 263.55399 2
134.72301 11.2029 275.52499 2
138.89101 17.999201 263.94 2
139.073 11.9223 277.258 2
131.79201 12.0483 271.11801 2
140.994 13.5572 274.017 2
140.757 22.4881 261.819 2
145.75 17.995199 268.694 2
141.10001 18.044701 264.75299 2
136.76601 19.2568 262.207 2
144.989 21.3855 264.314 2
144.229 24.6961 259.94299 2
137.953 21.662701 260.10101 2
143.032 18.9492 267.509 2
141.215 24.5812 259.62201 2
137.34599 13.2941 273.052 2
140.98199 23.7736 259.82101 2
142.10899 22.7271 260.534 2
143.92999 19.440701 265.08301 2
143.78 18.6535 266.42001 2
142.828 20.7285 263.09601 2
138.491 21.706699 261.746 2
139.981 21.167 261.79099 2
139.369 19.450701 262.13599 2
142.28101 25.2299 259.504 2
142.842 20.667299 263.87701 2
140.939 20.004999 263.12201 2
144.92999 19.704901 265.289 2
143.72 21.409 262.84601 2
141.884 19.7768 264.13501 2
143.187 20.179399 264.42499 2
143.892 23.492599 262.82101 2
140.774 20.493799 261.99899 2
138.444 19.097 261.823 2
144.478 19.3951 268.452 2
143.439 24.775 259.70599 2
142.392 23.0324 262.315 2
138.66499 21.036699 261.40601 2
143.85001 23.7549 260.86801 2
140.429 22.021999 262.323 2
139.741 19.580099 262.93201 2
143.933 22.9762 263.319 2
142.026 20.396099 263.823 2
140.08501 22.302799 261.742 2
144.38499 23.414499 262.33301 2
142.15401 24.304701 259.862 2
143.123 19.2575 264.72501 2
141.42101 22.613899 261.47699 2
141.381 20.445801 262.457 2
140.922 21.528299 262.14401 2
140.075 20.3155 261.76999 2
139.94701 22.0987 260.28101 2
138.84599 21.6968 260.56699 2
137.658 18.8193 262.228 2
137.123 20.412399 261.24301 2
140.19901 23.811199 259.57999 2
140.787 22.349001 260.85199 2
139.086 20.4841 261.599 2
141.35699 20.197901 263.767 2
139.168 19.424299 263.345 2
141.759 23.5686 260.00201 2
144.942 18.9946 268.84799 2
140.14301 19.534901 263.84799 2
138.187 19.0578 263.125 2
139.62 22.0583 261.211 2
141.92799 21.685499 262.41101 2
143.849 23.677401 263.70599 2
144.955 21.241199 265.20001 2
140.731 18.499201 264.07199 2
138.935 22.704901 259.69 2
144.407 18.978701 265.905 2
141.789 18.5784 264.60199 2
140.778 22.666 262.685 2
143.397 23.1831 261.116 2
143.211 23.242399 262.36801 2
144.457 24.244301 260.63101 2
137.528 19.4359 261.66101 2
143.161 23.963699 260.414 2
142.026 20.4058 263.09601 2
142.61099 18.641001 265.035 2
113.555 41.198002 266.54001 2
110.058 30.667999 270.73599 2
114.023 34.469398 270.31799 2
112.796 29.9014 268.69699 2
110.27 42.321499 268.41199 2
112.908 35.9146 268.974 2
109.102 34.3913 273.58801 2
116.478 38.416 265.63101 2
118.323 37.140499 264.896 2
119.26 32.429798 265.44299 2
112.572 45.405602 266.82501 2
112.944 40.364799 267.02899 2
119.628 36.118301 264.20999 2
114.266 39.025799 266.633 2
110.975 36.723598 269.47 2
150.925 23.194 267.633 2
109.272 33.170502 273.43799 2
110.427 34.5686 272.41901 2
110.1 37.631302 269.647 2
117.817 35.524601 265.69501 2
114.886 32.0905 268.68201 2
117.922 32.340199 266.319 2
111.455 43.464699 268.504 2
111.753 35.663799 270.763 2
112.558 31.7642 270.35699 2
114.394 40.9963 266.008 2
115.068 39.791901 265.87701 2
117.492 36.592899 265.52899 2
116.36 34.952801 267.634 2
108.619 39.119499 269.578 2
109.95 36.141102 270.92599 2
112.043 32.7169 271.58899 2
110.332 39.259499 268.51401 2
114.306 33.381401 270.099 2
114.388 30.996901 268.14499 2
112.461 43.388901 267.54501 2
109.297 32.126099 272.83301 2
112.611 36.883099 268.46799 2
111.422 31.670099 271.203 2
108.787 43.301899 269.23001 2
108.913 35.462002 272.85999 2
111.138 37.694302 269.09299 2
115.361 35.169899 268.034 2
110.113 35.652 271.88599 2
113.192 39.320999 267.11899 2
112.535 30.873501 269.59 2
117.778 34.778099 266.578 2
117.49 32.872601 267.17999 2
111.313 33.8391 272.45099 2
115.546 37.525398 266.43399 2
118.332 38.272301 264.505 2
115.957 34.273102 269.15201 2
120.692 34.107399 264.46201 2
117.062 31.0282 266.284 2
112.834 32.826199 270.91599 2
119.703 34.029202 265.711 2
110.806 41.293499 267.81 2
112.307 34.8559 271.05899 2
114.718 30.1707 267.37 2
108.876 41.653999 268.724 2
118.347 33.8442 266.966 2
115.741 32.088402 267.93399 2
108.531 40.549599 268.72501 2
118.504 35.904598 265.01599 2
115.187 30.899401 267.48999 2
111.864 44.0378 267.98599 2
109.542 39.410099 268.84399 2
110.361 40.027699 268.10901 2
114.143 31.9753 269.11301 2
114.594 43.476799 266.72699 2
112.656 35.5397 270.207 2
114.084 41.920799 266.46799 2
108.989 42.452099 269.02301 2
109.342 37.511101 270.026 2
112.548 33.515598 271.45001 2
111.678 41.159698 267.54401 2
112.795 37.6133 268.08499 2
110.968 29.750401 270.311 2
114.417 36.1908 267.69101 2
116.879 36.056999 266.14301 2
117.659 38.834202 264.759 2
114.974 33.786098 269.802 2
112.835 42.555199 267.58301 2
115.5 36.7332 266.72101 2
108.412 36.222099 272.37399 2
115.011 42.752499 266.617 2
115.668 35.970001 266.965 2
114.025 38.254299 267.129 2
112.037 42.836201 267.95901 2
112.078 37.856899 268.43301 2
111.036 38.9104 268.55499 2
112.361 38.7733 267.79199 2
114.159 37.114201 267.43201 2
115.988 39.021702 265.64499 2
110.505 44.337502 268.71701 2
109.491 40.239399 268.44299 2
116.929 32.076401 266.95099 2
116.7 32.7089 267.767 2
111.774 29.9217 269.862 2
110.828 36.0354 270.168 2
110.543 43.1777 268.802 2
110.533 31.6581 271.73801 2
120.939 33.195099 264.224 2
117.39 34.736198 267.466 2
110.841 35.7864 271.272 2
112.232 34.231899 271.78699 2
110.483 38.398102 269.108 2
116.319 33.238701 268.505 2
116.44 36.9049 266.11401 2
116.67 34.304901 268.42801 2
111.9 36.553299 269.05499 2
112.445 39.716599 267.345 2
114.645 32.771099 269.495 2
119.553 34.482498 264.92099 2
114.821 37.951099 266.798 2
117.7 37.797001 265.02701 2
113.349 36.977299 267.94101 2
112.541 44.295399 267.02899 2
108.701 38.158501 270.12299 2
113.693 32.716099 270.07501 2
111.812 31.248301 270.504 2
109.874 29.8465 270.405 2
113.766 35.431099 268.98901 2
111.717 39.446301 267.85599 2
108.533 44.131699 269.00101 2
109.187 36.702999 270.56601 2
113.523 31.3713 269.043 2
113.377 30.629601 268.57999 2
149.98 19.698999 269.34 2
149.039 23.176201 264.20901 2
146.317 14.1451 277.53101 2
147.85899 24.0222 262.27802 2
149.806 22.5229 265.61499 2
150.592 22.766199 266.798 2
148.3 16.5849 275.33499 2
146.036 19.3678 266.28201 2
147.04201 21.870899 264.565 2
150.881 18.501101 273.043 2
148.035 14.7646 277.504 2
149.627 17.413 274.52701 2
148.724 21.825199 265.08899 2
148.965 17.163099 275.30399 2
146.957 19.5177 266.78 2
115.791 40.419701 265.547 2
146.612 18.2551 268.561 2
149.33 17.739599 271.772 2
145.45799 24.197201 260.811 2
150.05299 16.6238 276.45001 2
148.41499 15.3207 276.84201 2
148.582 19.097601 268.40302 2
146.082 13.6771 279.64401 2
147.05499 24.0972 261.66599 2
146.30499 21.007999 265.23401 2
147.12801 18.5618 271.745 2
149.401 20.247601 267.41101 2
147.339 15.6063 273.19501 2
146.99699 19.560699 267.668 2
153.839 21.604 274.79901 2
146.82201 18.445999 273.14099 2
149.733 23.305099 264.98199 2
150.285 23.2523 265.77499 2
146.487 15.4335 273.04501 2
148.254 22.815001 263.67801 2
147.995 18.545099 271.22 2
150.73 18.2057 274.069 2
146.19701 19.799601 268.49899 2
148.49001 26.8708 261.56 2
147.45399 16.398899 272.38599 2
150.095 28.296 263.76999 2
147.36301 14.2815 278.22101 2
149.85201 20.253201 268.10101 2
148.213 16.254299 274.54099 2
151.52 19.9942 271.54199 2
149.827 17.5905 275.46701 2
151.27499 17.599501 276.18201 2
149.76601 24.125 264.487 2
151.399 24.998199 266.43201 2
146.95599 22.7075 263.185 2
148.33299 16.5221 272.646 2
149.117 15.6399 278.39301 2
146.48801 18.367901 272.258 2
147.44299 14.5199 279.35901 2
146.77499 15.3577 276.95599 2
147.711 17.4571 271.91599 2
149.327 15.9144 276.90302 2
149.537 16.811899 275.827 2
148.59599 24.327999 262.935 2
149.992 18.3458 271.73401 2
148.711 19.5429 267.64499 2
146.35899 24.8571 260.55899 2
147.371 25.777 260.827 2
149.452 20.987301 266.65799 2
111.194 30.560801 270.35699 2
115.194 38.761799 266.20499 2
113.755 36.072201 268.198 2
111.022 32.5742 272.18799 2
118.595 34.715698 265.55399 2
113.424 44.203201 266.84 2
111.749 35.946098 269.76999 2
109.686 41.012299 268.177 2
113.346 31.899799 269.71899 2
116.198 31.398701 267.12601 2
109.409 38.5051 269.49799 2
117.066 37.501701 265.62399 2
120.026 33.079201 264.95801 2
111.263 34.895599 271.62799 2
117.166 33.666801 267.92401 2
149.55099 18.3738 271.09399 2
113.751 40.134701 266.24301 2
109.944 36.709999 270.10101 2
119.916 35.081699 264.17001 2
114.882 34.962502 269.28201 2
116.993 39.281799 265.008 2
113.353 38.087399 267.55701 2
110.211 33.861 273.151 2
111.686 40.312 267.61499 2
110.357 29.0809 270.198 2
114.216 42.7038 266.80099 2
111.36 42.4716 268.26901 2
113.428 35.4771 269.82599 2
114.823 36.767399 267.20499 2
118.939 33.189499 266.13901 2
108.607 37.385899 270.58899 2
109.681 31.1889 271.64301 2
146.311 17.2008 273.095 2
148.099 20.5417 265.91501 2
147.35001 18.122801 270.625 2
146.60201 17.819201 269.181 2
151.698 18.773001 274.35501 2
146.422 20.000099 265.70401 2
148.489 17.7328 271.36099 2
147.336 17.999399 272.323 2
149.53101 18.855101 270.33899 2
147.83099 18.7714 268.36499 2
149.009 19.1182 268.98901 2
146.95599 16.9387 272.56299 2
147.326 18.087099 269.45001 2
148.461 18.529699 269.888 2
146.968 19.862499 266.15701 2
115.514 32.888 268.89301 2
146.077 18.1416 272.789 2
108.928 36.234402 271.73999 2
121.521 33.870602 263.50601 2
108.687 49.795898 267.12399 2
115.675 41.879501 266.056 2
113.579 29.7985 267.91599 2
116.347 35.5434 266.81799 2
108.436 29.5112 271.556 2
109.855 43.909 268.62201 2
111.772 38.573502 268.271 2
113.259 33.996899 270.97198 2
118.392 31.6833 265.67099 2
119.18 37.334099 264.263 2
108.393 32.721901 273.772 2
112.665 41.746101 267.48001 2
148.004 18.527 269.15601 2
131.185 56.215302 256.495 2
146.828 64.671097 256.63599 2
130.537 57.0383 256.51401 2
148.043 63.566601 257.01999 2
145.69701 59.278599 255.511 2
137.84399 59.102001 256.97101 2
143.92999 57.983002 255.24001 2
146.409 66.270203 256.63501 2
137.23199 64.550003 257.88 2
148.453 65.628799 257.14401 2
143.052 60.9991 256.54099 2
131.908 58.1954 257.10001 2
145.229 66.179703 256.724 2
145.19701 65.0457 256.496 2
144.543 61.3871 256.521 2
139.157 16.3111 270.35001 2
136.323 65.954399 258.31601 2
136.61301 61.511799 257.45499 2
139.593 52.2882 255.851 2
142.371 64.006897 256.21201 2
141.03 56.4328 255.034 2
145.60201 63.459499 256.42499 2
133.808 60.213699 257.69901 2
140.226 65.365997 256.72 2
136.077 60.020401 257.27399 2
147.256 63.5509 256.71201 2
130.05701 54.1073 256.974 2
127.385 55.619301 257.444 2
128.056 56.993 257.71701 2
137.84 62.986801 257.522 2
146.39 61.591801 256.28699 2
139.808 54.179298 255.246 2
135.032 58.460701 257.245 2
140.688 58.742599 255.89999 2
141.015 61.322498 257.01801 2
145.85899 64.477097 256.57101 2
133.591 56.3522 257.01599 2
125.392 57.242699 258.41299 2
144.21201 64.925797 256.35501 2
133.03799 55.795799 256.42599 2
125.68 55.247002 258.116 2
148.226 62.737 256.73401 2
142.29201 56.227699 255.095 2
134.498 53.715199 256.405 2
147.345 61.261002 255.923 2
136.774 59.553501 257.164 2
141.399 60.335999 256.48199 2
141 65.192001 256.22101 2
134.836 55.359299 256.86801 2
147.27499 66.7285 256.948 2
130.608 55.390301 256.51501 2
142.87801 58.461399 255.118 2
141.711 63.834499 256.82999 2
137.996 54.5704 255.897 2
142.972 62.135899 257.01401 2
145.595 62.514 256.332 2
141.84801 57.011902 254.912 2
131.01601 53.120499 256.53201 2
140.164 59.7038 256.51401 2
133.064 59.2813 257.703 2
143.957 63.0555 256.133 2
143.595 65.554901 256.12601 2
148.535 64.627998 257.11499 2
129.444 56.807999 257.237 2
141.278 17.6444 270.431 2
142.133 14.7627 273.573 2
142.897 12.134 281.245 2
136.509 13.8064 271.81699 2
146.31799 14.8016 273.60901 2
137.06799 12.3635 274.13501 2
132.396 12.2739 270.89999 2
142.888 12.2533 276.642 2
135.48 15.375 267.76999 2
139.91299 15.9742 271.52499 2
132.064 11.1466 273.69601 2
136.52901 17.519501 264.466 2
135.286 11.3105 275.82101 2
142.062 18.4485 267.039 2
143.778 12.1251 279.22601 2
141.054 64.442596 256.78601 2
143.09 17.3116 269.422 2
138.69701 12.0759 275.29099 2
139.71201 11.9732 277.10999 2
134.8 12.8014 271.85599 2
144.002 15.5757 274.453 2
144.214 16.406099 270.815 2
136.19701 14.9295 269.58301 2
144.205 13.3495 277.40201 2
141.25301 17.7813 265.48599 2
138.032 14.9459 271.54501 2
130.39 12.0869 270.55899 2
137.832 18.7635 263.125 2
132.88901 13.0897 269.383 2
143.33099 15.9092 272.27802 2
144.51601 18.188499 268.86499 2
145.877 14.6118 276.17401 2
142.408 63.223598 257.069 2
142.408 64.797897 256.082 2
136.63699 56.572701 256.78 2
128.09 55.633598 257.09299 2
130.507 53.807999 256.422 2
129.659 53.450001 257.151 2
126.156 56.106098 258.02701 2
130.22701 54.507099 256.314 2
126.447 57.937901 258.03799 2
128.864 54.814999 257.34698 2
134.67999 13.8551 269.83099 2
145.3 13.3812 281.353 2
145.742 17.312401 270.013 2
136.118 19.112301 262.59698 2
137.73 11.6284 277.155 2
133.071 14.3327 267.45999 2
140.015 17.9956 267.82501 2
130.08099 11.2987 272.33899 2
139.328 13.3803 272.24899 2
133.821 16.1588 265.23199 2
134.52499 11.7142 273.72299 2
141.44501 11.8644 278.74899 2
142.47 15.0009 270.82199 2
130.87199 12.8676 268.95999 2
139.517 18.029301 264.15601 2
144.908 17.097601 273.565 2
137.989 15.8815 269.939 2
146.04401 13.489 277.95901 2
140.771 12.6078 275.38699 2
143.172 19.5362 269.37399 2
137.11099 16.785 266.63199 2
144.121 13.1678 274.729 2
143.306 57.317699 255.192 2
148.944 63.567699 257.117 2
146.189 60.632099 256.035 2
138.84599 61.009399 257.155 2
133.89 55.437 256.78201 2
146.42599 63.630402 256.56601 2
137.53 63.740501 257.66501 2
137.48599 53.8078 256.33301 2
134.052 58.352299 257.388 2
143.618 60.423801 256.185 2
130.979 54.3909 256.20599 2
143.133 63.1064 256.73401 2
127.482 56.382999 257.78101 2
140.877 57.248901 254.75999 2
140.10699 64.696701 257.22501 2
139.515 65.607597 257.155 2
126.689 54.600498 257.54901 2
137.37399 60.3008 257.14499 2
146.08501 65.4431 256.56699 2
137.37601 57.395901 256.71301 2
132.42799 57.409801 256.806 2
130.05901 59.411999 257.879 2
136.33701 55.839802 256.71301 2
129.255 54.178299 257.21799 2
134.714 60.311401 257.556 2
139.213 57.753399 255.82201 2
139.978 55.0145 255.422 2
144.299 63.943298 256.31601 2
125.044 54.892399 258.771 2
138.908 55.844398 254.834 2
137.312 65.816803 258.07501 2
140.52699 60.472698 256.84601 2
150.28999 65.522797 258.51401 2
138.808 52.4217 256.18301 2
125.637 53.182098 258.56 2
138.67101 65.506599 257.68399 2
145.11301 58.4991 255.306 2
132.21899 58.884201 257.67599 2
125.745 59.360001 259.81 2
138.58701 58.403999 257.07001 2
144.45399 65.882004 256.44199 2
132.955 52.908001 256.203 2
147.659 62.084 256.30301 2
142.26401 61.460098 256.96799 2
128.91299 55.726299 256.99799 2
141.315 55.644501 255.203 2
135.27699 56.955898 257.03601 2
128.91701 60.2029 258.647 2
147.61 65.840202 256.97198 2
141.653 64.565804 256.242 2
137.679 55.653301 255.62801 2
125.406 56.1828 258.151 2
130.274 52.996201 257.05099 2
139.62199 62.933399 257.345 2
144.685 62.508999 256.15799 2
127.337 58.1343 257.89499 2
149.20799 67.987396 258.806 2
135.47701 53.3592 256.629 2
141.47701 59.343399 255.995 2
130.168 57.807999 256.798 2
127.507 53.247299 257.01901 2
135.78101 59.220299 257.22299 2
140.535 53.518299 254.94 2
131.95 56.103802 256.02499 2
136.13499 54.272099 256.60199 2
139.853 61.495998 257.13699 2
126.463 53.515999 257.68301 2
138.62 63.958099 257.60901 2
138.37199 54.922699 255.12 2
144.842 59.533298 255.576 2
129.72 55.0797 256.61899 2
125.748 54.2668 258.20599 2
136.394 52.780399 256.496 2
136.463 65.131104 258.08301 2
140.256 56.367401 254.662 2
142.498 59.696098 256.034 2
139.66499 58.635101 256.23901 2
143.224 63.9813 256.117 2
135.082 54.390099 256.76599 2
138.754 53.985001 255.741 2
133.31799 54.878502 256.091 2
137.537 52.7598 256.42999 2
131.77699 59.978298 258.052 2
134.19701 59.3825 257.53299 2
137.14999 55.205399 256.41 2
133.313 57.617001 257.44299 2
127.252 60.2812 259.37299 2
139.537 60.211899 256.96799 2
137.685 61.267399 257.28 2
137.46201 56.5028 256.22601 2
129.207 58.004299 257.08099 2
132.731 54.054699 256.06699 2
137.22 62.149601 257.44699 2
138.323 57.505501 256.40201 2
128.188 57.926899 257.40701 2
149.37399 65.770798 258.034 2
126.734 59.555099 258.84799 2
125.45 58.2192 259.069 2
142.612 65.518303 256.366 2
126.226 57.228298 257.88101 2
148.694 66.409798 257.534 2
143.812 61.784199 256.83701 2
142.14799 57.891102 254.937 2
147.634 64.548897 257.021 2
149.664 66.791702 258.63501 2
132.993 60.162102 257.92401 2
130.10201 56.209 256.892 2
142.49001 55.318001 254.842 2
145.408 61.507401 256.50201 2
138.52499 56.616199 255.733 2
138.61099 62.229401 257.32401 2
131.92999 53.374802 256.14899 2
141.89301 62.601299 257.19699 2
131.077 58.435799 257.26801 2
128.104 54.501099 257.29401 2
143.98199 58.873501 255.185 2
140.716 62.4884 257.23199 2
144.799 60.4827 256.17599 2
132.19299 54.9715 256.26401 2
137.15601 58.5313 256.95599 2
139.53799 53.005699 255.28999 2
138.689 59.565601 256.95499 2
143.265 56.1922 254.90401 2
140.625 63.6749 257.31201 2
146.561 62.388199 256.38699 2
149.558 64.2967 257.73199 2
140.974 54.560501 254.938 2
135.951 58.010799 257.08701 2
134.351 16.7568 264.69901 2
144.92599 17.091801 271.461 2
143.55 15.8666 270.043 2
138.91299 12.3009 274.13 2
138.10001 17.181299 265.755 2
134.015 12.096 272.59698 2
129.841 11.8418 271.08801 2
136.86301 13.5499 272.48499 2
138.065 17.246901 266.73599 2
133.319 12.3984 271.21701 2
142.351 17.843901 269.88199 2
133.11501 12.0348 272.02899 2
130.63499 11.5561 271.83701 2
132.662 14.6703 266.87701 2
135.562 15.0719 268.547 2
138.70599 17.391001 266.28299 2
135.242 12.0357 273.715 2
141.25101 12.0684 275.85599 2
142.685 11.9376 280.51599 2
139.765 12.7487 273.64401 2
135.20399 16.774099 265.00101 2
140.082 12.3197 275.60999 2
137.48 15.3937 270.26501 2
144.423 16.887699 272.99899 2
133.26801 12.8933 270.242 2
135.226 13.6792 270.785 2
144.797 16.51 274.05301 2
142.448 15.1118 272.96301 2
145.76601 17.463499 270.862 2
136.64301 14.3376 271.07001 2
142.64 12.3724 275.40601 2
143.916 18.9664 269.29599 2
133.774 13.6508 269.19501 2
134.64999 14.8638 267.897 2
143.681 16.324699 272.95901 2
142.12601 11.9569 277.65201 2
144.702 16.742201 269.97 2
139.08299 17.2211 264.79901 2
137.98801 12.1263 274.67099 2
137.15199 18.711399 262.60599 2
134.74699 12.1248 273.01901 2
136.44 15.5662 268.659 2
141.702 12.7233 275.229 2
143.948 16.4457 272.077 2
137.996 11.8809 275.85001 2
141.90601 15.2461 270.255 2
144.396 13.1031 281.72 2
140.302 15.2635 271.12201 2
134.60001 16.142401 265.52399 2
139.54401 12.12 275.082 2
135.74899 11.6066 275.19699 2
137.495 15.8948 269.27301 2
137.045 16.344999 267.74799 2
141.978 18.862301 269.271 2
138.677 16.412701 269.784 2
140.033 17.248501 269.69 2
141.437 16.427099 270.30099 2
144.076 17.131901 269.138 2
144.58299 13.8219 274.147 2
135.44501 12.6742 272.55801 2
132.832 11.3769 273.565 2
137.94701 14.4034 272.15799 2
144.42 13.2165 275.478 2
140.06599 17.6472 264.655 2
145.254 17.5317 273.10599 2
136.036 12.301 273.703 2
141.75301 18.157499 270.28 2
145.776 14.3976 273.84 2
139.218 17.153799 268.89801 2
137.938 12.8832 273.37299 2
140.63699 17.489799 270.16501 2
136.239 13.1561 272.60101 2
144.761 17.525801 268.89899 2
141.914 14.5859 270.94 2
143.047 15.7071 273.061 2
138.40601 11.7393 277.62299 2
138.87199 15.4852 271.40701 2
142.27299 14.5403 274.25201 2
136.851 17.115801 264.935 2
140.23399 13.1672 273.086 2
136.16299 16.413799 266.173 2
138.339 14.0455 272.60199 2
142.257 14.8344 271.58899 2
136.39999 14.7234 270.23599 2
137.45399 14.8379 271.189 2
135.46899 15.6183 266.97501 2
134.28101 12.7998 271.40701 2
135.42599 18.5581 263.05899 2
137.74699 11.7572 276.47501 2
135.063 13.2241 271.38699 2
136.05099 11.4229 276.01099 2
143.661 15.9936 270.97501 2
134.31599 14.2526 268.71799 2
131.439 12.6098 269.23801 2
136.711 17.941799 263.96701 2
139.612 17.608101 266.45099 2
142.683 15.351 270.08301 2
131.53 11.2985 273.17599 2
136.22701 15.7383 267.94299 2
139.01601 17.301399 265.59601 2
143.33299 15.7732 271.53201 2
140.63901 16.0825 270.70999 2
136.51199 11.8591 275.00201 2
140.58299 18.1695 267.36099 2
145.58501 16.7707 273.53601 2
134.278 15.0855 267.099 2
134.97501 15.8044 266.30801 2
140.065 14.4651 271.28699 2
133.304 15.122 266.535 2
131.45399 13.2384 268.673 2
138.14999 15.5513 270.728 2
142.90601 13.433 274.651 2
143.875 16.037201 273.884 2
131.481 11.779 271.76199 2
136.834 15.1366 269.89899 2
141.69901 13.5902 274.97299 2
135.812 14.3324 270.13901 2
141.047 16.940201 270.65701 2
133.73399 15.7992 265.86801 2
132.269 11.4723 272.866 2
139.55701 16.341499 270.897 2
132.52901 11.0709 274.254 2
144.79401 13.5289 274.78101 2
138.18401 13.3008 272.806 2
134.26199 11.3688 274.62299 2
137.836 16.442499 268.466 2
133.666 14.7309 267.23999 2
145.16901 17.0513 270.46201 2
142.94 14.9164 274.65799 2
133.034 15.4426 265.91501 2
138.925 12.5496 273.07001 2
143.967 16.4704 269.612 2
139.76199 17.4436 265.68701 2
138.82001 15.8655 270.82199 2
141.756 14.36 271.60699 2
131.925 14.3015 267.11401 2
131.524 12.4322 270.10199 2
138.40401 16.7353 268.802 2
145.644 15.7376 273.34299 2
135.948 14.1159 270.832 2
140.10001 16.798 270.71899 2
139.618 12.5786 274.392 2
136.036 11.9017 274.418 2
143.349 12.803 274.914 2
142.06599 12.1255 275.85101 2
144.82001 17.2887 272.422 2
144.043 14.4809 274.142 2
136.03101 11.2822 276.67999 2
133.214 13.7514 268.52301 2
140.80099 11.8216 279.67099 2
143.09399 12.4995 277.72 2
141.187 15.6532 270.41699 2
145.314 14.1365 277.41299 2
138.842 14.7382 272.27701 2
136.229 15.9668 267.21899 2
136.862 18.299101 263.29599 2
140.672 11.9012 277.84201 2
138.123 12.4113 273.87299 2
139.509 11.981 276.04199 2
142.623 18.644699 269.85999 2
140.37399 13.2692 273.83099 2
135.48801 16.378 265.66599 2
141.487 18.646099 268.64001 2
134.843 17.278 264.33499 2
139.282 16.9326 269.57199 2
142.451 12.9361 274.90799 2
140.743 14.5986 270.99899 2
137.127 16.030899 268.51099 2
145.53799 17.5975 271.58401 2
140.972 13.737 272.41199 2
133.18401 11.7431 272.76099 2
137.207 11.8198 275.56799 2
139.929 11.8949 278.63699 2
141.489 11.94 277.061 2
136.05499 12.6778 273.09201 2
142.174 11.7872 279.793 2
134.286 15.405 266.418 2
145.367 13.9503 274.34601 2
138.106 17.019699 267.67599 2
133.80499 12.8737 270.79901 2
137.633 13.7685 272.71301 2
144.314 12.7879 280.50201 2
142.10201 15.9652 269.853 2
138.24001 17.1959 264.966 2
135.614 18.180401 263.60001 2
131.681 11.5417 272.436 2
138.252 11.6371 278.375 2
134.948 14.5943 268.67001 2
136.978 14.8952 270.62201 2
145.526 13.1043 279.07001 2
133.575 11.2406 274.43301 2
131.862 13.704 268.23901 2
143.981 12.5664 278.42401 2
144.814 15.4323 274.01001 2
132.282 11.8596 271.797 2
144.38901 13.3174 276.44601 2
135.032 11.6681 274.496 2
130.66 12.3116 269.66699 2
133.931 13.3405 269.995 2
141.32401 18.083401 266.62399 2
146.22701 14.7132 275.32901 2
133.623 11.5516 273.54501 2
142.242 18.844299 267.98999 2
132.05099 12.8775 269.09 2
145.91901 14.7568 277.13 2
140.702 18.280899 268.35699 2
145.485 17.3475 269.142 2
140.592 12.0158 276.28 2
137.00301 11.608 276.41599 2
145.14 14.0101 276.543 2
135.653 16.069901 266.491 2
145.541 14.0971 275.211 2
143.371 13.9795 274.44299 2
138.862 17.2087 268.20401 2
142.836 16.312401 269.5 2
134.56 13.3102 270.647 2
140.92101 13.7372 273.293 2
131.18201 12.0243 270.93799 2
143.16299 15.5134 270.651 2
141.353 18.3979 267.55301 2
136.89301 12.846 273.28799 2
135.686 17.1984 264.55899 2
132.353 12.666 269.92899 2
137.467 17.474001 264.40701 2
143.03101 15.3875 273.686 2
138.679 11.9418 276.745 2
145.42799 13.3753 280.11099 2
141.114 13.3335 274.599 2
139.125 17.659401 267.35999 2
140.864 17.9561 269.509 2
142.979 19.2253 268.38199 2
143.642 12.7453 281.67899 2
145.036 13.1519 278.142 2
137.202 16.933001 265.59799 2
142.57401 15.2023 272.116 2
138.259 17.580601 263.996 2
141.767 14.0583 274.254 2
133.87 12.3546 271.853 2
142.87199 11.9317 278.78799 2
135.688 13.3849 271.64301 2
138.58701 18.430201 263.57599 2
139.04601 11.833 277.89099 2
143.446 18.3605 269.474 2
137.274 14.3901 271.711 2
144.804 12.677 279.54599 2
145.05901 14.5297 273.63699 2
139.98399 17.699499 268.75299 2
143.69099 12.7394 276.24399 2
139.619 15.044 271.755 2
142.431 14.0813 274.98199 2
140.125 17.8529 266.854 2
136.265 16.9086 265.263 2
133.922 14.3567 268.17001 2
143.355 12.1586 280.129 2
142.02499 17.1292 270.008 2
141.873 14.5856 272.60699 2
140.114 13.7524 271.79901 2
115.49 12.6357 269.29401 2
115.071 16.3881 265.31299 2
127.025 12.1975 270.32999 2
119.915 11.3714 272.776 2
120.126 8.8149004 277.95599 2
118.672 9.1628199 275.97 2
120.136 9.07967 277.15399 2
123.992 11.398 273.64099 2
119.034 8.9556904 276.91199 2
124.472 12.4068 270.63901 2
125.889 12.6638 269.70001 2
115.456 10.0163 273.26599 2
124.22 10.1668 277.45099 2
121.285 12.0573 272.68799 2
127.112 11.3754 272.354 2
113.662 43.235001 266.90302 2
128.862 11.0235 273.19901 2
124.579 10.746 275.30701 2
116.686 11.917 269.84299 2
125.618 10.1413 277.55099 2
120.169 13.0407 270.931 2
116.842 9.3078804 275.75 2
123.458 9.6550598 280.384 2
118.989 12.5754 270.42599 2
126.813 10.255 276.40601 2
126.419 10.9752 273.74301 2
128.86 10.6318 274.37399 2
127.443 11.0737 272.95099 2
124.453 11.894 272.16299 2
122.465 9.8094702 279.151 2
119.593 14.24 268.543 2
120.867 14.2813 268.00699 2
121.094 12.4526 272.07001 2
118.233 13.5831 268.64499 2
115.14 15.6129 265.354 2
125.594 11.1251 273.61499 2
125.451 12.216 270.84698 2
114.787 12.8552 268.931 2
121.03 10.826 275.26099 2
116.835 10.2851 272.582 2
122.36 13.9426 268.27701 2
114.77 10.3004 272.54599 2
128.89101 11.5727 271.36899 2
115.658 11.0953 271.189 2
126.623 10.3575 275.703 2
123.72 13.625 268.61099 2
120.995 9.8826799 276.034 2
122.085 10.585 276.44501 2
115.85 14.7626 266.42999 2
120.092 9.9037399 274.74899 2
117.874 14.74 267.229 2
123.021 10.8093 275.552 2
121.009 11.5814 274.008 2
124.201 12.8018 269.98599 2
127.853 10.809 273.59698 2
117.999 11.6103 270.44299 2
123.786 9.8257303 278.75601 2
118.801 11.4412 270.99899 2
121.957 11.3048 274.448 2
127.652 10.5619 274.95901 2
124.747 13.147 269.02399 2
120.354 14.7687 267.17899 2
123.291 11.8481 272.543 2
122.148 10.3707 277.754 2
129.149 11.4562 272.01599 2
117.308 14.4222 267.05801 2
121.659 11.0563 275.246 2
122.856 12.5806 270.94699 2
120.031 9.3631897 276.052 2
118.42 10.3438 272.76001 2
114.944 15.652 266.02301 2
117.863 10.4285 272.384 2
117.363 9.5936203 274.496 2
127.232 11.8767 271.04599 2
124.132 12.1347 271.58499 2
120.891 13.8909 268.953 2
120.04 10.5959 273.746 2
121.384 10.249 276.42001 2
120.818 10.246 275.491 2
121.152 8.69804 279.02499 2
115.542 13.6113 267.63901 2
123.386 13.2862 269.08899 2
117.178 13.4592 267.616 2
124.903 10.5139 275.901 2
121.675 14.3183 267.698 2
114.595 13.6072 268.49301 2
122.01 13.4514 269.53601 2
118.617 10.9908 271.47 2
122.514 10.6893 275.97101 2
123.009 13.1027 269.823 2
116.042 15.2572 266.06 2
124.898 10.8967 274.62201 2
118.178 14.5124 267.75201 2
124.147 11.0032 274.48099 2
121.897 10.2897 276.98801 2
126.47 10.8171 274.46301 2
117.152 15.3325 266.45099 2
117.868 9.2255096 275.88901 2
128.83099 11.8823 270.67801 2
120.469 11.7677 273.353 2
122.895 12.3442 271.57199 2
126.063 11.399 273.03201 2
114.088 12.1724 270.17099 2
114.558 14.349 267.082 2
117.795 13.5958 268.056 2
120.055 14.4282 267.89001 2
115.264 11.837 270.28601 2
118.804 15.2388 266.53799 2
116.853 9.7608805 273.983 2
126.193 12.2823 270.55701 2
126.699 11.7117 271.70401 2
128.392 11.4319 271.80099 2
122.192 13.6671 268.93799 2
121.455 13.9957 268.46799 2
121.842 9.7480602 277.82501 2
116.622 12.863 268.379 2
118.826 9.8032999 274.34601 2
115.321 13.1191 268.327 2
119.191 13.9445 269.06799 2
122.819 10.2142 277.80701 2
114.144 15.0052 267.039 2
126.879 10.4701 275.07501 2
114.959 11.3451 270.87601 2
127.92 11.2396 272.384 2
118.693 11.8493 270.452 2
117.522 9.8764801 273.733 2
121.003 11.3642 274.853 2
122.598 12.0224 272.323 2
121.918 12.2215 272.18701 2
113.902 15.3528 266.49701 2
122.7 13.3936 269.33401 2
115.584 9.5185499 275.005 2
116.61 9.9352398 273.34299 2
125.091 12.7993 269.70401 2
128.17 11.7988 271.01901 2
124.692 11.1779 273.87299 2
121.729 11.7069 273.582 2
118.814 14.4336 268.18201 2
115.551 14.2504 267.04901 2
125.766 10.1691 276.646 2
119.409 10.0083 274.02899 2
128.59 11.2166 272.492 2
117.761 11.0302 270.95801 2
122.571 11.5252 273.836 2
114.172 12.4494 269.362 2
115.766 16.1493 265.60101 2
117.396 12.9448 268.39001 2
116.025 11.6348 270.55499 2
122.965 10.5219 276.492 2
123.883 10.8441 275.04901 2
121.495 10.8355 275.98901 2
116.803 14.6119 266.58701 2
129.51601 11.9101 270.465 2
122.42 10.0526 278.465 2
123.525 12.1457 271.85101 2
124.737 12.1691 271.32001 2
127.238 10.6906 274.23499 2
122.026 9.1558199 279.297 2
119.488 8.8241396 277.51901 2
120.426 9.68291 275.46799 2
121.459 9.7006197 277.15302 2
114.725 9.9851198 273.63199 2
120.573 13.1425 270.31601 2
114.23 14.1601 267.68701 2
126.741 11.1853 273.121 2
124.312 10.44 276.26901 2
123.451 12.5747 270.608 2
120.506 10.7643 274.59 2
117.589 11.9703 269.73901 2
119.769 15.0192 266.70999 2
115.526 14.7927 265.62299 2
120.251 12.285 272.60199 2
128.562 12.459 269.68301 2
122.739 9.4191198 280.328 2
116.3 10.6444 271.465 2
114.437 10.7283 271.90302 2
129.26199 10.7693 273.77899 2
117.632 15.5881 265.97299 2
126.58 11.9922 271.069 2
124.442 13.6661 268.20401 2
120.474 8.61656 278.78299 2
115.949 12.7732 268.577 2
119.432 9.1869898 276.293 2
126.116 10.3821 278.047 2
120.306 14.1142 268.47699 2
122.424 11.0053 275.026 2
123.655 10.0842 277.99899 2
118.764 13.4589 269.314 2
126.21 10.6393 275.04001 2
119.266 12.0893 271.10901 2
125.162 11.6952 272.47 2
117.959 9.7075796 274.22198 2
114.948 13.5159 267.89801 2
117.597 9.5114098 275.117 2
118.516 12.1783 269.88599 2
127.579 11.5353 271.729 2
118.202 12.7623 268.97699 2
115.017 12.154 269.69299 2
120.354 11.1763 273.74301 2
119.946 12.646 271.664 2
125.52 10.9192 274.44601 2
125.519 10.5555 275.685 2
124.284 11.6157 272.81699 2
116.801 12.4381 268.92001 2
115.053 14.969 266.41501 2
114.722 9.7207699 274.53201 2
120.83 9.11168 277.491 2
121.498 13.662 269.07999 2
116.386 14.1651 267.41599 2
121.505 13.2767 269.905 2
128.13 10.5541 274.31699 2
121.623 9.1090603 278.48901 2
121.772 12.557 271.36401 2
123.366 11.2212 274.189 2
119.566 9.4822502 275.366 2
116.765 15.7833 265.96201 2
124.599 10.0062 278.918 2
126.373 11.5338 272.306 2
118.106 15.2688 266.64499 2
125.397 10.206 278.51099 2
122.268 11.8361 272.91299 2
127.854 12.1974 270.10699 2
116.014 10.2407 272.79501 2
118.791 10.2017 273.298 2
123.998 13.1611 269.28601 2
124.234 9.8315201 280.77499 2
118.552 9.4239197 275.25299 2
117.368 10.5322 271.94901 2
123.368 13.9923 267.87601 2
119.581 10.5779 273.02399 2
114.063 13.234 268.505 2
122.338 12.8588 270.49301 2
129.94299 11.1629 272.772 2
120.533 9.3212004 276.53101 2
123.565 9.7102299 279.65399 2
114.47 16.115101 265.936 2
126.785 10.3161 277.17401 2
117.621 10.1792 273.07101 2
120.815 12.7374 271.28101 2
125.823 11.8575 271.69101 2
119.425 13.0766 270.75101 2
116.002 12.1261 269.62601 2
126.623 12.4518 269.716 2
125.376 13.3218 268.53299 2
116.583 13.2789 267.82101 2
119.755 13.5234 269.79199 2
115.78 9.7659798 273.94699 2
124.683 9.9538202 278.013 2
118.792 14.7869 267.21301 2
115.466 10.4997 272.03601 2
118.213 9.0321302 276.72601 2
119.49 11.1283 272.17599 2
117.01 11.5642 270.452 2
116.546 9.5686398 274.76501 2
127.398 12.9488 269.35101 2
121.302 14.5656 267.22601 2
113.245 12.7657 269.51199 2
113.366 11.574 271.30399 2
112.247 12.3152 270.79999 2
111.504 16.064899 267.56799 2
112.101 15.9683 267.19199 2
112.124 12.0816 271.353 2
113.49 12.1267 270.43701 2
112.024 12.4386 276.00201 2
113.343 13.4439 268.534 2
108.858 15.9188 274.41699 2
111.914 11.7319 273.40799 2
111.36 13.3965 281.38599 2
123.598 9.5622902 281.28101 2
115.867 9.2451696 275.89801 2
116.327 8.7908802 285.23499 2
118.86 12.9771 269.73099 2
120.976 7.9239101 284.54199 2
113.585 12.2714 285.05899 2
113.984 10.2893 279.81299 2
117.003 9.59231 289.29501 2
114.185 12.0771 288.57599 2
115.498 8.8577404 282.22101 2
120.91 8.2187204 281.13699 2
118.217 7.7522202 283.44601 2
118.146 8.7805901 277.664 2
113.387 10.1487 276.66699 2
113.486 11.9294 281.64999 2
116.065 8.4583998 279.09201 2
112.403 12.7656 279.35001 2
115.422 10.905 287.039 2
117.557 8.1470203 286.95999 2
118.128 8.2584496 280.409 2
112.715 11.5567 276.89401 2
110.631 14.1538 270.54099 2
111.225 14.5559 268.76199 2
112.757 17.8804 265.896 2
111.66 12.5946 270.83701 2
112.824 15.2891 267.39999 2
110.633 13.7202 280.39301 2
113.56 14.7492 267.26901 2
108.604 19.592699 268.582 2
109.292 14.2222 279.21701 2
108.844 19.752899 267.741 2
112.216 17.5485 266.42001 2
111.209 18.508101 266.41299 2
112.766 10.766 274.992 2
108.701 13.0854 282.54501 2
112.992 12.4699 270.095 2
111.262 17.0686 266.922 2
110.496 16.090799 268.00699 2
109.105 17.371901 271.02499 2
108.55 19.3559 270.353 2
112.01 12.1103 275.05399 2
110.417 14.4231 271.92001 2
113.015 10.7453 276.40302 2
112.123 15.1085 267.87299 2
110.656 19.3706 266.58301 2
113.332 10.1847 273.97699 2
113.66 12.9491 269.01901 2
112.575 13.0055 269.41 2
109.873 15.6961 273.14301 2
108.414 13.9165 280.099 2
111.959 16.894199 266.72101 2
108.465 14.1283 279.46301 2
116.889 8.2894201 280.33099 2
122.09 8.0050802 283.686 2
113.831 12.0571 286.29401 2
116.019 11.1031 289.556 2
112.784 12.4903 280.48401 2
114.67 9.0197201 276.97699 2
113.833 11.9807 287.44501 2
116.767 10.2525 290.19299 2
115 11.6896 287.745 2
114.447 9.33955 279.39499 2
115.623 9.6988297 284.91199 2
112.028 13.3188 280.25101 2
116.057 10.0552 287.39999 2
115.206 10.7109 285.78101 2
112.988 11.8509 279.315 2
114.557 10.9452 283.69601 2
112.589 12.3785 285.97101 2
111.713 12.9565 282.776 2
113.934 10.8913 281 2
117.135 8.18678 285.99701 2
120.829 8.41043 280.15601 2
113.529 12.1828 289.32501 2
114.731 11.7053 286.78299 2
117.334 7.7589302 283.91199 2
112.957 12.1269 287 2
115.303 11.7834 289.047 2
115.655 12.1373 290.909 2
122.781 9.07024 281.44199 2
114.583 12.356 289.60999 2
114.906 10.7046 284.556 2
116.178 8.2151499 282.01401 2
119.068 8.18641 280.89999 2
112.727 12.2945 290.104 2
122.732 8.3157701 282.72501 2
119.372 7.7115502 286.04401 2
114.453 9.06493 278.11301 2
120.07 8.5118799 279.45001 2
115.401 12.0074 289.98401 2
113.218 11.0607 278.27301 2
119.855 7.9135699 282.76901 2
114.195 9.5198898 275.27499 2
114.507 10.0998 281.543 2
110.704 13.083 282.94 2
115.223 8.7507 280.55899 2
112.931 12.7166 283.035 2
115.425 9.5244303 283.80801 2
122.198 8.79286 280.29599 2
113.839 11.9538 283.33801 2
117.504 7.7120199 285.173 2
118.56 8.0406904 281.86401 2
116.629 8.8160896 277.608 2
116.278 8.2251596 283.35001 2
116.087 10.478 288.49899 2
119.53 7.7020102 284.517 2
117.026 9.11094 288.01401 2
113.435 11.524 280.36099 2
115.856 9.8839598 286.29199 2
120.654 8.0127497 285.95499 2
114.582 11.5791 285.50601 2
121.385 7.9916902 282.31699 2
112.526 12.9708 281.70001 2
117.675 8.5407896 278.81799 2
116.64 8.9816103 286.65399 2
116.994 8.05264 281.51801 2
110.821 16.477501 267.48801 2
109.45 13.3928 281.76401 2
110.93 13.8563 269.85999 2
108.87 18.5807 268.80701 2
113.955 9.8460598 274.17499 2
111.34 19.2227 266.27399 2
111.332 13.57 280.07501 2
111.655 12.27 271.69901 2
113.126 15.7495 266.76599 2
113.61 12.3873 269.897 2
110.073 15.2563 272.67801 2
112.373 11.5424 275.26801 2
108.485 18.954 271.29999 2
109.611 16.017599 269.40201 2
111.961 14.572 268.44901 2
111.362 13.8064 279.30801 2
108.567 20.268299 268.22198 2
113.452 9.84688 275.82401 2
109.435 18.874901 267.23599 2
111.527 17.6984 266.672 2
110.317 14.6394 271.25699 2
108.434 19.9326 269.84601 2
112.221 12.6518 270.272 2
112.656 12.1825 278.625 2
109.052 17.8283 270.33701 2
110.75 15.377 268.38901 2
109.362 16.4163 273.026 2
108.582 13.6426 280.70801 2
108.924 17.6374 272.12701 2
110.921 13.419 271.78601 2
113.069 13.2852 269.04599 2
112.31 11.2861 273.41299 2
116.15 14.3827 266.85101 2
120.366 13.6081 269.617 2
122.851 11.1947 274.58701 2
119.866 11.9303 272.233 2
123.491 12.3507 271.24701 2
115.963 13.1428 267.85999 2
121.123 11.8405 273.44 2
118.625 14.2078 268.737 2
121.012 13.4717 269.56799 2
119.065 10.6761 272.457 2
124.988 12.498 270.302 2
120.14 10.3229 274.30099 2
120.268 13.8015 269.04199 2
116.499 11.2687 270.69 2
123.571 10.645 275.76901 2
109.013 15.6999 274.95001 2
127.879 12.621 269.53 2
121.461 13.059 270.47198 2
115.14 10.8744 271.41299 2
119.155 13.718 269.69501 2
118.019 12.2493 269.41901 2
122.891 13.6253 268.81 2
119.332 14.7235 267.47501 2
114.391 16.659901 265.685 2
123.455 10.4363 276.82599 2
113.513 17.784 265.65799 2
113.884 11.1555 271.742 2
109.331 16.713301 271.19299 2
113.094 10.8986 277.155 2
113.743 13.6874 267.974 2
111.211 13.1406 273.96799 2
116.178 12.3901 268.996 2
113 14.0201 268.45999 2
112.818 10.9586 272.69299 2
110.138 15.3201 269.12399 2
108.769 18.690001 270.45801 2
109.873 15.4616 271.16199 2
111.037 13.2931 270.896 2
113.025 10.5246 273.47198 2
110.539 14.6017 269.54599 2
109.46 16.3713 272.01099 2
111.387 12.627 273.25699 2
108.322 19.943399 270.73001 2
109.423 19.774099 267.25699 2
111.573 13.1816 269.995 2
111.044 13.1873 272.62201 2
108.865 18.121 271.41101 2
111.074 20.4298 266.73099 2
109.961 16.988899 267.78299 2
112.938 11.5167 271.79199 2
108.653 19.2715 269.34698 2
112.833 11.6944 277.95099 2
110.701 17.736099 266.88 2
109.926 16.100201 268.556 2
108.967 18.819099 268.021 2
109.203 20.443001 267.72699 2
110.199 13.5013 281.448 2
112.625 11.3749 276.03 2
108.915 18.320601 269.58099 2
113.515 16.308201 266.32599 2
109.184 17.255301 269.78601 2
109.127 17.847799 268.59299 2
109.421 13.7446 280.55899 2
112.628 16.449499 266.66699 2
110.313 14.7554 274.88699 2
113.77 10.2819 273.026 2
112.923 14.5549 267.672 2
112.939 11.9571 270.991 2
110.755 13.9438 273.168 2
109.99 13.9896 279.44299 2
109.711 17.7572 267.48499 2
109.505 16.812599 268.55499 2
110.539 18.560699 266.758 2
111.568 15.4136 267.60699 2
110.016 15.1427 270.32001 2
112.278 12.3012 276.80499 2
111.914 13.758 269.17999 2
110.249 14.8115 273.798 2
109.521 15.923 273.97198 2
113.879 11.6415 270.931 2
110.229 19.805 266.89899 2
112.098 18.487801 266.147 2
109.733 13.1281 282.74399 2
112.009 11.821 274.25201 2
108.587 17.146099 273.11301 2
108.455 13.4246 281.94601 2
108.624 16.357901 274 2
112.934 10.6848 275.711 2
109.035 13.956 279.88599 2
113.001 17.129801 266.18399 2
112.522 10.9923 274.332 2
111.695 16.415501 267.086 2
113.22 10.1152 274.733 2
109.512 16.131701 270.45401 2
111.051 13.6083 274.77802 2
112.213 11.5495 272.24899 2
115.42 50.662601 265.30499 2
121.238 41.0191 263.28699 2
122.31 36.639301 262.60901 2
118.856 42.670101 264.62601 2
115.179 47.8778 265.29999 2
118.054 46.884201 263.77499 2
119.643 47.245201 263.45599 2
119.759 41.5779 264.13901 2
119.064 39.053101 263.80099 2
113.164 47.3755 265.72299 2
122.75 45.806 262.89801 2
122.871 40.082901 261.89001 2
120.511 38.325401 263.211 2
116.332 47.347198 265.14999 2
122.322 35.575298 262.72198 2
118.578 10.7444 272.069 2
121.072 44.812199 263.82999 2
109.526 49.584 267.04001 2
121.324 47.048698 262.98599 2
111.515 48.128502 266.26001 2
113.102 50.131199 265.24701 2
112.409 49.117199 265.66101 2
123.412 36.458199 262.01099 2
115.679 45.5989 265.98901 2
114.44 44.362202 266.668 2
118.348 48.931702 263.16901 2
116.955 44.629501 265.444 2
119.347 43.262001 264.16901 2
121.466 37.673302 262.86099 2
116.232 44.039299 266.397 2
116.529 41.720299 265.66101 2
114.002 47.557301 265.892 2
118.81 47.428902 263.53201 2
122.233 37.608601 262.513 2
118.806 38.232201 264.17401 2
118.344 49.664299 262.98099 2
117.726 39.7122 264.63501 2
111.345 49.242802 266.26599 2
122.417 44.981499 263.32999 2
113.106 48.186501 265.77899 2
116.883 49.057098 264.08099 2
122.398 48.684601 262.76599 2
120.502 42.426498 263.98801 2
117.598 47.883099 263.729 2
117.25 40.491798 264.83899 2
123.184 42.3111 262.37399 2
118.494 39.996799 263.92599 2
113.993 49.506699 265.30301 2
116.406 45.931 265.97501 2
111.687 50.987499 265.95599 2
121.277 46.314098 263.354 2
121.533 48.531898 262.99799 2
114.718 50.936699 264.78601 2
120.16 43.292999 264.09399 2
118.044 42.285301 265.03601 2
122.558 42.686298 263.30899 2
121.1 39.300999 262.62399 2
118.49 44.594002 264.09201 2
115.571 49.657101 265.28601 2
119.714 45.425499 263.60001 2
117.946 46.207802 264.245 2
114.254 46.333 266.46201 2
110.603 49.306301 266.98801 2
113.499 50.9687 265.31799 2
