# .PCD v0.7 - Point Cloud Data file format
VERSION 0.7
FIELDS x y z label
SIZE 4 4 4 4
TYPE F F F U
COUNT 1 1 1 1
WIDTH 777
HEIGHT 1
VIEWPOINT 0 0 0 1 0 0 0
POINTS 777
DATA ascii
108.089 13.5136 281.34201 1
105.253 15.0057 277.83499 1
107.914 14.2112 279.12 1
102.574 14.7145 280.021 1
107.076 14.866 277.33899 1
107.416 15.165 276.80399 1
102.314 15.9487 278.069 1
106.794 12.9339 282.811 1
105.505 14.5324 278.384 1
106.768 13.1813 282.14401 1
103.922 13.6918 280.90201 1
115.892 12.6723 293.159 1
102.917 17.7159 275.36301 1
105.887 15.432 276.82101 1
104.557 20.169201 273.065 1
105.064 16.796101 275.14999 1
107.247 14.4173 278.47601 1
107.797 14.8775 277.39099 1
101.735 17.6395 276.29999 1
104.341 15.5336 277.17999 1
101.635 16.8223 277.25601 1
103.439 15.4122 278.004 1
115.676 12.5303 291.94299 1
107.904 12.7654 283.547 1
101.691 18.1873 275.74899 1
104.218 20.690599 273.091 1
105.714 13.982 279.79999 1
108.084 19.5291 271.40701 1
103.743 14.9898 278.42599 1
107.652 13.34 281.79901 1
106.292 18.6243 273.08099 1
110.458 20.573 267.02701 1
103.917 17.952 274.91599 1
106.216 14.583 278.38699 1
107.745 13.0086 282.98599 1
105.106 13.8924 280.06799 1
101.053 16.4814 278.22 1
107.152 14.1319 279.30499 1
107.028 13.7994 280.48401 1
101.118 17.358 276.96701 1
108.183 15.9352 274.77802 1
103.8 14.1322 280.17499 1
104.943 16.396799 275.63 1
106.982 12.5849 284.21301 1
108.31 15.3611 276.021 1
107.894 14.4602 278.517 1
104.017 19.3715 273.91699 1
104.443 19.649099 273.48901 1
95.380302 26.0042 278.11899 1
101.017 18.611099 275.922 1
99.922401 29.9312 277.146 1
97.543098 35.846199 280.284 1
97.204201 21.740499 276.54401 1
95.641998 30.1717 279.50201 1
98.8787 25.9685 275.93201 1
93.245399 35.521301 280.793 1
102.956 28.960899 274.978 1
100.307 21.885401 274.65201 1
103.387 32.0653 276.642 1
109.967 11.9067 287.54999 1
94.968803 20.3463 278.522 1
96.745903 32.961601 281.64301 1
98.184799 31.4363 279.23499 1
94.580002 23.0889 277.99399 1
94.155899 27.737 279.948 1
97.667801 28.572901 277.923 1
103.138 21.6278 273.30499 1
101.25 26.2875 274.642 1
97.375198 19.2801 277.54001 1
94.645103 34.238998 282.31201 1
99.190804 19.8381 276.233 1
99.012299 17.206301 278.68701 1
109.103 12.5839 284.38501 1
111.467 12.6049 284.70099 1
111.973 12.2374 286.82199 1
108.906 12.1559 286.12399 1
112.084 12.021 288.20599 1
110.722 12.3611 285.61401 1
114.604 12.6428 290.58701 1
109.972 12.1448 286.51501 1
109.686 12.2806 285.41 1
114.883 13.2177 292.052 1
110.374 12.5292 284.63501 1
102.626 24.316799 273.26099 1
111.152 12.0117 287.759 1
108.405 12.3614 285.08099 1
109.883 12.8646 283.81799 1
112.441 12.5571 284.879 1
111.018 12.1332 286.707 1
110.919 12.7815 283.90601 1
112.189 12.078 289.133 1
111.692 12.3541 285.78299 1
113.723 12.5309 290.569 1
115.194 12.7473 291.224 1
96.120796 17.6325 280.547 1
93.8526 32.304699 283.24799 1
112.084 12.7322 283.866 1
102.913 18.998501 274.60101 1
101.076 16.927401 277.50101 1
106.055 12.7624 283.83499 1
106.115 16.104401 275.61099 1
102.261 16.3925 277.32101 1
106.656 13.9501 279.85101 1
104.798 18.615101 273.784 1
102.28 17.6476 276.043 1
111.167 13.7447 275.84399 1
107.043 21.2966 271.34201 1
106.057 13.2555 281.62799 1
103.032 16.2526 277.01501 1
109.084 15.3372 275.87799 1
105.018 20.7827 272.62701 1
104.375 13.4217 281.535 1
108.564 14.4995 278.12299 1
106.801 17.988701 273.228 1
107.69 15.4039 276.27499 1
108.069 15.693 275.45099 1
105.124 13.0506 282.12799 1
106.192 12.9572 282.603 1
103.725 15.6231 277.52802 1
103.184 14.4107 280.052 1
106.642 16.311899 274.754 1
108.608 12.8969 283.48801 1
111.704 12.941 276.11301 1
107.53 14.62 277.98099 1
102.82 20.4629 273.85901 1
103.38 14.0134 280.85199 1
105.735 18.284901 273.54999 1
105.213 14.1914 279.34201 1
106.429 13.6452 280.784 1
102.9 15.7173 277.952 1
104.564 15.2706 277.673 1
102.182 15.1582 279.461 1
107.087 12.8296 283.41299 1
107.404 20.103201 271.582 1
106.769 15.2007 276.81601 1
109.853 14.8285 277.12201 1
104.296 16.5632 275.75101 1
107.88 18.063601 272.724 1
106.723 14.2621 278.78 1
103.897 20.1106 273.52701 1
106.634 16.945601 273.98001 1
111.318 13.7211 277.07999 1
107.485 13.4694 281.05801 1
105.969 20.2913 272.353 1
110.827 14.1028 278.078 1
105.962 14.2409 279.01901 1
103.418 19.7318 274.02802 1
103.384 20.765301 273.39801 1
106.368 20.757099 271.85901 1
106.829 13.3529 281.53699 1
105.365 13.312 281.26801 1
102.604 18.52 275.25299 1
105.606 13.6115 280.44699 1
111.602 13.5682 278.12299 1
104.314 14.4347 279.216 1
105.535 15.1031 277.22101 1
107.404 19.2036 272.05301 1
107.41 16.7066 274.311 1
107.812 13.8093 280.41699 1
101.668 16.3426 277.76599 1
103.625 16.582701 276.18701 1
106.708 14.82 277.86301 1
102.941 14.8096 279.50201 1
107.173 17.429001 273.48901 1
108.386 14.8694 277.521 1
104.983 19.2174 273.44 1
105.863 17.1514 274.298 1
108.213 18.868401 271.957 1
105.091 17.3167 274.58401 1
107.527 16.108801 274.815 1
104.903 14.726 278.30499 1
102.635 16.8234 276.535 1
108.055 12.6543 284.15399 1
105.749 19.062901 273.10101 1
104.449 13.9767 280.048 1
103.238 18.2022 274.83099 1
108.247 20.729099 269.513 1
102.223 19.5313 274.71399 1
110.618 14.4043 277.17499 1
102.206 15.5252 278.66699 1
103.01 17.2999 275.823 1
106.577 19.7209 272.15302 1
105.456 21.599701 272.16599 1
104.562 18.0725 274.38199 1
104.421 16.0226 276.392 1
104.462 17.031799 275.09 1
106.189 17.661699 273.849 1
103.02 15.2059 278.58499 1
106.306 15.5565 276.19299 1
109.104 14.8659 277.51001 1
105.342 17.8715 274.13599 1
104.65 21.5117 272.58499 1
104.947 15.6109 276.901 1
109.863 15.0608 276.181 1
97.329399 27.397699 277.46899 1
99.022797 31.742201 279.11801 1
95.0383 28.569901 278.68301 1
99.541801 22.051399 275.09201 1
100.891 29.926001 276.565 1
98.054298 25.1567 276.14499 1
94.589699 27.3288 279.298 1
102.518 22.2446 273.51001 1
97.954102 18.0207 278.327 1
93.570602 35.246601 281.61801 1
95.322098 23.149599 277.51001 1
93.979698 29.7693 280.91599 1
101.247 20.123301 274.90399 1
98.175201 19.366501 277.01599 1
94.995201 26.5585 278.66 1
99.060501 18.9403 276.77301 1
98.2332 35.442902 279.99701 1
102.698 29.9006 275.57999 1
99.319397 31.015301 278.263 1
96.030602 35.527802 281.24701 1
94.883698 24.019501 277.86301 1
97.739197 20.815599 276.48001 1
95.408302 18.091101 280.41 1
98.968697 29.655399 277.55899 1
99.8881 30.7055 277.69601 1
97.578003 17.3423 279.612 1
100.05 32.461899 279.129 1
101.086 17.912901 276.54901 1
96.485703 18.334101 279.129 1
94.583397 25.713499 278.535 1
95.587303 33.367199 282.52301 1
95.936798 21.5411 277.336 1
96.770302 32.151299 280.832 1
100.497 16.856001 278.077 1
95.681999 20.5576 277.957 1
100.142 28.8162 276.599 1
97.367699 18.665899 278.23199 1
99.724701 33.313202 279.82401 1
96.941299 22.7269 276.54001 1
101.195 22.483601 274.16299 1
97.981499 26.064899 276.521 1
95.745201 18.346701 279.68701 1
102.598 23.253201 273.259 1
95.726997 32.398701 281.918 1
98.147903 27.5257 277.048 1
95.534897 34.353802 282.452 1
98.289703 24.1012 275.78201 1
94.507401 31.8622 282.45001 1
98.941597 22.484699 275.34399 1
96.6819 35.910702 280.72 1
99.520599 27.541599 276.20599 1
97.496498 31.276501 279.55301 1
95.1978 34.6451 281.54599 1
94.444801 32.706902 282.95801 1
96.116798 24.677099 277.22699 1
100.813 20.7488 274.84399 1
96.559799 17.7061 279.927 1
94.993202 22.496099 277.75101 1
98.321404 17.2493 279.004 1
96.689796 25.0851 276.92401 1
99.500801 18.0683 277.33801 1
102.407 29.0889 275.44901 1
101.835 20.6938 274.26501 1
97.100502 20.1492 277.23999 1
100.433 22.573799 274.54599 1
98.362396 20.745399 276.16101 1
110.716 21.096901 266.629 1
111.148 22.4242 265.91501 1
112.131 22.669399 265.396 1
111.882 21.679701 265.556 1
111.509 21.0266 266.08801 1
96.963097 20.9874 276.83499 1
95.838997 31.1868 280.659 1
96.487198 22.0324 276.94199 1
95.762802 19.6798 278.47 1
96.660202 19.6122 277.99899 1
100.444 19.216101 275.87299 1
95.2491 35.4907 280.76199 1
98.491898 28.697599 277.52399 1
101.076 31.2323 277.66199 1
102.938 31.372601 276.57401 1
98.453003 32.118599 279.79999 1
94.764297 28.433599 279.55099 1
98.898804 17.708 278.095 1
94.647598 35.8741 280.358 1
99.382202 28.8445 277.08301 1
93.592598 33.833698 282.42801 1
101.766 21.6908 273.97501 1
97.510597 35.082802 280.573 1
99.691704 19.2033 276.21301 1
95.0364 25.2082 278.013 1
96.033401 26.415001 277.88101 1
95.7631 25.495501 277.63599 1
97.001801 28.1747 278.09601 1
102.629 32.0378 277.121 1
94.400703 33.513699 282.74701 1
98.004997 30.753599 278.814 1
102.129 27.6369 274.758 1
95.627701 24.142401 277.47699 1
99.283501 32.514702 279.68301 1
94.387299 24.8067 278.27899 1
96.553101 20.6017 277.33499 1
94.249199 26.416 279.06299 1
98.465698 21.4196 275.81699 1
95.094803 32.569199 282.55701 1
96.984901 30.253799 279.05099 1
100.625 23.228901 274.32599 1
96.344704 19.089001 278.56799 1
96.007401 28.473301 278.797 1
103.164 30.572001 275.81 1
98.369202 29.339701 277.013 1
95.176102 21.682899 277.86499 1
102.253 25.5387 273.73001 1
101.54 28.4853 275.608 1
93.6511 36.397499 279.86401 1
101.475 24.221399 273.87299 1
96.458199 27.171301 277.98401 1
93.931 30.774599 281.85999 1
96.4944 25.794901 277.323 1
100.297 29.324699 275.785 1
97.748497 32.2453 280.332 1
98.516098 23.2453 275.586 1
100.251 28.0683 276.10199 1
98.589798 33.6175 280.74399 1
95.219597 36.3326 280.74799 1
95.003098 31.4622 281.61401 1
97.3395 24.7129 276.42899 1
102.333 20.0825 274.27802 1
95.738403 28.2521 277.90601 1
97.456001 26.6171 277.03699 1
100.497 17.482 277.33499 1
100.421 24.613199 274.582 1
95.2062 19.0338 279.397 1
99.2798 35.3582 279.939 1
99.873199 31.5816 278.56699 1
101.878 31.896099 277.565 1
96.157799 34.661598 281.50299 1
102.033 29.827499 276.15799 1
96.661903 31.3671 280.21701 1
98.825203 18.365499 277.35999 1
101.897 22.8388 273.685 1
95.9356 22.615999 277.19501 1
98.601799 30.5825 277.91501 1
100.497 20.170799 275.33499 1
97.303299 17.9228 278.91299 1
99.699097 34.3522 280.01199 1
96.874496 33.997002 281.97299 1
96.017097 29.5306 278.71201 1
94.022903 28.959999 280.203 1
97.182503 29.371401 278.45001 1
97.718201 33.134102 281.14001 1
95.002998 33.755699 283.19501 1
102.392 21.107401 273.862 1
102.189 31.121099 276.90201 1
95.036301 30.689899 280.88199 1
95.603699 27.495399 278.64001 1
99.382896 24.1164 275.177 1
101.058 27.166599 275.15201 1
98.678001 34.623402 280.54901 1
97.716904 22.507 276.09299 1
99.483902 25.2015 275.28201 1
99.261703 29.460699 276.56201 1
97.810402 29.7134 277.76199 1
99.711601 17.3417 277.923 1
96.874199 35.183899 281.06699 1
94.4636 34.464401 281.37701 1
94.175102 35.323502 280.979 1
98.575104 32.754601 280.31201 1
101.188 25.2689 274.33301 1
99.844498 26.7677 275.634 1
101.639 19.35 275.099 1
97.641998 34.377499 281.09698 1
99.1549 27.9883 276.724 1
96.563103 23.653799 276.785 1
101.292 21.154699 274.36099 1
94.8097 36.317902 279.42801 1
95.179604 35.429798 281.58801 1
93.476799 34.609501 282.20801 1
100.946 30.605301 277.13501 1
100.891 32.247398 278.41501 1
94.867897 29.7901 280.17899 1
98.598503 26.9582 276.492 1
99.566002 22.9853 274.97299 1
98.400002 36.275101 279.63 1
100.106 18.413099 276.60999 1
97.5886 23.6364 276.16599 1
97.303703 36.494301 279.323 1
100.34 25.6607 274.965 1
95.950897 31.8426 281.16599 1
99.458298 20.694201 275.57501 1
96.015297 35.654202 280.409 1
102.181 26.5639 274.11801 1
98.1903 20.1161 276.591 1
95.338097 29.006701 279.41 1
97.663399 13.5605 288.57101 1
101.463 11.8499 293.785 1
114.121 13.2606 292.55301 1
103.263 12.3836 294.80801 1
101.991 13.2813 283.42099 1
96.342499 16.4849 282.33801 1
106.62 12.4844 285.46899 1
107.427 13.5984 296.24899 1
101.965 12.3296 291.90601 1
106.282 11.9652 288.63699 1
97.721603 12.3374 291.758 1
103.579 17.4671 275.284 1
100.187 11.7423 294.11301 1
111.758 13.0789 293.203 1
97.260101 12.3103 294.05399 1
110.23 11.868 288.53799 1
107.512 11.8561 289.78799 1
101.432 13.8666 282.789 1
105.139 12.7072 284.00601 1
106.33 11.8634 289.685 1
99.949699 14.653 282.50101 1
112.293 12.7034 291.75699 1
97.063499 15.6261 283.66699 1
108.184 11.8981 287.93201 1
106.845 11.9406 290.48901 1
101.593 12.6568 286.81601 1
105.829 12.3711 286.117 1
108.334 14.3732 297.80301 1
109.526 13.9491 295.979 1
98.193298 12.0757 292.65201 1
107.9 12.2925 291.76599 1
106.908 12.0212 287.71399 1
109.271 11.7781 288.397 1
97.189003 13.0266 289.88901 1
102.584 12.4654 290.13501 1
110.485 12.4847 291.953 1
109.464 12.648 292.89001 1
102.798 12.6435 286.534 1
97.716698 15.8268 282.36899 1
104.32 11.92 290.09299 1
99.214203 11.8099 293.95999 1
103.703 12.6362 292.814 1
106.507 13.258 295.651 1
97.120102 17.013399 280.46301 1
108.468 11.7797 289.07101 1
100.427 15.327 280.772 1
108.111 12.1395 286.82501 1
103.663 12.6708 291.70001 1
105.292 12.0681 288.33301 1
110.275 11.9018 289.604 1
102.655 12.9489 284.681 1
104.749 12.032 290.85101 1
111.317 12.312 291.32599 1
99.646301 16.2686 279.716 1
98.372498 13.6838 286.905 1
104.972 12.8513 293.233 1
106.206 12.1772 291.633 1
97.009399 14.907 285.37299 1
104.344 12.3248 287.87601 1
111.773 12.2103 290.08099 1
96.359596 17.1422 280.95901 1
102.725 12.4639 292.362 1
101.701 12.0226 295.78201 1
100.527 12.6261 287.76099 1
97.029404 14.415 286.59601 1
99.731102 12.0932 296.07599 1
103.994 12.7561 284.14401 1
97.632004 14.1169 287.31 1
101.543 12.7119 290.22101 1
102.745 13.2502 283.004 1
107.142 12.1339 291.40601 1
102.23 12.4289 287.909 1
108.123 12.4952 292.66299 1
106.116 13.119 294.595 1
112.66 13.9759 294.62 1
99.084198 13.3575 287.97699 1
102.057 12.6019 290.89499 1
108.164 13.7717 295.64301 1
107.861 13.881 297.09799 1
100.122 11.7878 295.09698 1
99.908501 13.912 284.23401 1
101.174 13.177 284.54001 1
110.582 12.7739 293.05499 1
98.307899 12.0561 294.83801 1
108.712 11.9752 290.146 1
97.924103 13.1741 289.37201 1
95.973396 16.0075 284.086 1
109.011 14.3813 297.138 1
97.799103 16.395 280.82199 1
100.275 13.3373 285.14001 1
102.833 12.6004 291.36499 1
106.03 12.202 287.164 1
104.346 12.7008 294.931 1
103.769 12.4656 286.63901 1
108.809 12.2159 291.24399 1
106.582 12.7904 293.04401 1
108.221 13.1799 294.22501 1
101.849 14.9558 280.21399 1
103.393 12.6935 285.29099 1
103.838 12.5914 295.65701 1
111.021 11.9485 289.10001 1
98.2882 13.8031 287.76801 1
96.328201 16.063101 283.25299 1
98.033798 16.805 279.98999 1
97.1213 12.4293 292.55099 1
101.184 12.2729 291.29401 1
101.053 13.5502 283.70901 1
98.201797 14.4566 285.198 1
105.734 12.659 292.54999 1
107.395 11.8856 288.72101 1
103.53 12.3224 290.686 1
96.758904 13.5907 289.04901 1
100.754 14.6114 281.83801 1
107.77 12.2734 285.82999 1
104.607 12.6212 292.27899 1
107.955 12.0533 290.681 1
99.153801 11.8498 295.009 1
99.553802 15.8118 280.45801 1
111.462 12.6618 292.22501 1
103.348 12.3881 287.42099 1
100.119 12.971 288.496 1
97.342903 12.3372 295.10101 1
115.277 13.2821 292.86499 1
100.211 16.6483 278.57999 1
105.173 12.2816 287.40201 1
106.679 13.5714 296.90799 1
96.2854 14.9172 286.207 1
109.444 12.4143 291.836 1
102.612 12.2094 293.18301 1
103.381 13.2746 282.19299 1
95.556198 17.4083 281.16199 1
98.191399 12.7657 290.215 1
108.865 13.4671 294.94601 1
98.7444 15.2018 282.591 1
108.989 11.9908 287.36801 1
100.56 12.112 296.31299 1
102.215 12.2825 289.09201 1
105.952 13.028 293.625 1
112.185 13.4729 293.987 1
105.692 11.8725 290.60001 1
109.106 14.8576 298.45099 1
112.886 12.5502 291.01501 1
106.293 12.5637 284.51999 1
99.565598 11.7998 292.95099 1
100.6 13.0282 285.92099 1
113.446 13.4657 293.29001 1
98.004303 15.0824 283.806 1
97.029198 12.7042 290.97299 1
98.746002 13.2481 288.92401 1
101.029 12.7986 289.49399 1
114.104 12.8628 291.509 1
107.523 13.4672 294.92001 1
105.466 11.9502 289.19501 1
107.292 13.0578 293.73499 1
100.804 15.9315 279.44101 1
104.907 12.9679 296.40302 1
97.291801 16.3918 281.57001 1
99.739502 12.8355 287.32199 1
98.510498 15.7503 281.509 1
97.763603 14.0915 286.27899 1
102.266 13.7272 282.32599 1
99.677101 15.1523 281.73599 1
99.865898 12.0049 291.67999 1
103.382 12.0109 289.55801 1
106.923 12.1554 286.62601 1
109.797 11.9886 290.65302 1
113.134 12.9279 292.14401 1
99.360901 13.8478 285.258 1
99.043503 16.785 279.26599 1
106.832 12.3889 292.20599 1
110.198 13.0504 293.84201 1
105.534 13.0265 295.32999 1
109.397 11.8269 289.564 1
100.968 11.7943 294.71201 1
108.549 12.7951 293.465 1
108.524 14.0308 296.46201 1
96.818199 15.3917 284.673 1
104.41 12.8755 283.401 1
98.682701 12.1368 291.65201 1
96.766403 14.3121 287.61401 1
110.947 12.152 290.54599 1
99.9114 12.4765 290.37799 1
104.95 12.4691 285.42401 1
99.141602 13.4706 286.33099 1
98.153503 12.0077 293.80499 1
102.918 13.0641 283.82001 1
102.372 12.1607 295.25101 1
104.459 12.7875 293.939 1
99.301804 14.4443 283.79199 1
102.616 14.0811 281.17899 1
101.912 12.9041 285.147 1
101.219 11.9112 292.79401 1
101.359 12.4399 287.90201 1
104.234 12.112 288.715 1
111.629 23.255899 265.78799 1
106.92 25.8486 271.086 1
109.252 23.3288 267.43399 1
108.097 21.492599 269.48099 1
109.684 25.475201 268.504 1
108.145 27.7414 270.73901 1
112.002 26.812 267.224 1
110.517 24.0618 266.625 1
108.096 22.805599 269.33801 1
103.145 23.8787 272.95001 1
109.309 21.767799 267.27802 1
111.011 13.2682 293.98599 1
107.249 26.9902 271.14499 1
105.704 25.610399 271.62201 1
109.111 27.502399 270.12 1
105.937 23.1661 271.47501 1
104.044 21.887199 272.64801 1
106.85 22.302999 271.15701 1
108.467 23.0434 268.42499 1
108.026 24.7922 270.38 1
104.594 25.035801 272.14401 1
106.014 27.143499 271.896 1
109.255 26.3605 269.827 1
107.02 24.5865 270.862 1
105.816 28.5697 272.71701 1
107.087 29.1679 272.229 1
106.716 28.906601 271.31699 1
103.907 27.392799 273.43701 1
105.407 31.618 275.108 1
104.315 29.063299 274.12 1
104.162 31.8244 276.056 1
103.336 28.0933 274.24301 1
103.288 22.546499 272.94 1
110.273 22.4984 266.388 1
107.61 22.631399 270.55801 1
104.483 24.050699 272.164 1
110.842 26.242701 267.935 1
108.43 25.6891 270.25299 1
105.929 24.542101 271.37 1
108.527 22.0777 268.147 1
105.719 22.214199 271.87299 1
106.65 27.888 271.76099 1
111.612 24.882799 266.22299 1
103.439 25.142799 272.92099 1
108.701 24.2908 268.98099 1
109.879 27.0368 269.51801 1
103.328 26.7759 273.52301 1
104.888 26.6576 272.41501 1
107.345 12.4614 284.76999 1
109.794 21.1569 267.28201 1
105.605 16.782 274.85501 1
104.91 13.7204 280.76801 1
101.874 18.7605 275.36401 1
107.858 21.020599 270.72 1
105.979 14.8804 277.80499 1
106.873 18.732599 272.625 1
103.664 16.081699 276.72601 1
111.96 13.0316 277.69501 1
105.376 12.925 283.03601 1
107.848 23.475201 270.229 1
103.895 18.775499 274.194 1
110.55 14.5389 276.103 1
107.71 14.0362 279.70499 1
107.747 16.883699 273.65799 1
107.382 13.1036 282.401 1
101.839 17.1499 276.79599 1
106.193 21.642599 271.74301 1
107.144 15.8402 275.62201 1
105.148 19.861601 272.94299 1
108.653 15.0186 276.845 1
105.439 15.7405 276.28101 1
103.621 14.7426 279.073 1
110.451 27.768299 269.39801 1
107.855 26.232201 270.737 1
103.895 26.32 272.95001 1
110.113 21.707899 266.811 1
109.894 23.284599 266.797 1
104.151 22.771099 272.50601 1
111.239 24.0555 266.09299 1
104.968 22.679701 272.004 1
105.207 23.571301 271.75 1
107.507 21.801201 270.823 1
106.267 26.3846 271.53601 1
101.49 16.0303 278.51001 1
104.94 25.825701 272.103 1
107.508 25.360001 270.75201 1
106.497 25.132999 271.17999 1
104.087 25.497999 272.582 1
105.284 24.9032 271.737 1
107.946 22.1768 269.979 1
107.234 23.691299 270.69501 1
108.672 25.0168 269.92599 1
108.354 21.505699 268.63599 1
108.346 24.309999 269.64099 1
109.478 14.2671 278.37601 1
103.862 21.3074 273.05301 1
106.494 23.7862 271.23499 1
105.643 13.1813 296.56799 1
96.942398 13.9126 288.259 1
104.25 12.547 285.74301 1
99.091499 13.2263 287.06201 1
99.836899 13.1538 286.42099 1
96.086197 15.5801 284.802 1
101.33 14.183 282.09698 1
101.021 14.8486 281.164 1
102.48 12.757 285.629 1
101.884 12.6971 286.12 1
98.789703 14.8079 283.37299 1
104.315 31.2194 275.526 1
98.7808 15.9927 280.853 1
104.559 12.7875 295.685 1
98.689499 11.978 293.198 1
98.244797 14.7187 284.40701 1
101.926 12.1153 292.793 1
98.667099 12.3475 290.92801 1
100.614 11.7498 293.17599 1
98.773903 12.8748 289.55399 1
103.349 13.6323 281.556 1
100.171 16.255899 279.19101 1
101.948 14.3537 281.26401 1
104.579 12.6144 284.784 1
101.885 12.0056 294.57001 1
99.587303 13.054 289.15201 1
112.761 13.1345 292.91501 1
97.934998 12.4017 290.93701 1
100.588 14.0808 283.242 1
95.950104 16.930401 281.737 1
101.359 12.5115 288.776 1
110.18 13.3617 294.616 1
101.949 13.0877 284.24799 1
98.8881 12.1362 295.73901 1
112.073 12.4286 290.93201 1
97.487801 15.0535 284.44199 1
97.967903 15.449 283.07599 1
103.602 12.9861 283.37299 1
102.939 12.0582 288.80099 1
102.688 12.2187 293.991 1
96.374298 14.7891 287.09 1
101.492 15.5105 279.39899 1
100.237 12.8416 289.634 1
97.642403 12.2037 293.22198 1
104.939 12.3952 286.65302 1
99.056 11.9748 292.37 1
100.238 11.842 292.35699 1
98.455299 14.0611 285.89999 1
102.863 12.2758 295.89801 1
99.478203 12.7243 289.92801 1
101.509 11.9045 295.14899 1
98.769798 16.479099 279.78799 1
100.982 11.921 295.84 1
102.741 14.3732 280.599 1
97.752998 12.1702 294.49799 1
96.993202 16.6903 281.021 1
100.826 11.7713 293.92599 1
103.181 26.9856 273.72 1
105.046 32.134102 275.659 1
105.325 29.412701 273.66199 1
104.611 13.0327 282.72101 1
103.372 28.757 274.565 1
107.904 31.035 272.62799 1
104.968 27.7766 272.86899 1
107.037 31.740999 273.98801 1
104.321 30.2673 274.66501 1
106.137 30.092199 272.388 1
108.795 28.482901 270.68701 1
107.576 28.4538 271.43701 1
105.736 30.6437 273.87799 1
107.303 29.9072 271.56299 1
104.338 28.373699 273.67401 1
105.904 28.5877 271.56799 1
100.897 12.684 287.14001 1
99.1633 15.5225 281.297 1
103.134 12.3037 288.10501 1
95.810303 16.4715 282.815 1
99.385201 12.3627 290.84799 1
104.489 12.414 291.60599 1
97.033203 12.5524 291.67001 1
98.924599 14.4423 284.39499 1
101.136 12.082 292.10999 1
100.38 15.6886 279.95001 1
99.758598 14.4326 283.26599 1
103.814 12.5953 293.90799 1
100.527 12.4387 290.69699 1
100.474 12.1901 291.401 1
105.011 12.8469 294.35199 1
103.256 12.4584 293.306 1
98.864601 12.6824 290.327 1
100.319 14.9286 281.41299 1
98.9646 15.2764 281.94601 1
100.556 13.4388 284.405 1
105.666 12.6003 284.78799 1
104.038 11.8847 289.42001 1
99.369797 14.894 282.75101 1
97.248299 15.8915 282.85101 1
100.684 12.7896 288.89099 1
